149.50199890 92.15740204 -129.21200562
155.02600098 92.05940247 -127.20400238
15.82339954 95.88410187 -214.99000549
17.96170044 95.09329987 -198.69999695
18.38850021 94.95359802 -195.82299805
24.66430092 92.99050140 -155.38800049
25.04560089 92.75920105 -150.62300110
28.29719925 91.81990051 -131.27600098
30.97920036 91.97760010 -134.52400208
41.28239822 91.46679688 -124.00399780
55.57680130 91.28790283 -120.31900024
81.34030151 90.38909912 -101.80500031
83.29080200 90.16600037 -97.21019745
104.41799927 89.83429718 -90.37809753
116.25499725 91.04699707 -115.35600281
120.73799896 91.15180206 -117.51499939
123.91899872 91.25219727 -119.58399963
133.24299622 91.37529755 -122.11900330
17.11319923 94.96700287 -205.47900391
22.18490028 93.31649780 -171.31799316
23.44890022 93.00610352 -164.89500427
25.39929962 91.99420166 -143.95300293
35.68450165 91.22509766 -128.03500366
58.15890121 90.80290222 -119.29699707
73.17839813 90.53250122 -113.70099640
75.70580292 90.44039917 -111.79299927
78.54530334 90.21540070 -107.13600159
80.17019653 90.09700012 -104.68699646
83.57720184 89.58149719 -94.01760101
102.97200012 88.89749908 -79.86090088
108.16300201 90.02469635 -103.19100189
118.50299835 90.67050171 -116.55599976
126.57700348 90.84899902 -120.25000000
129.19999695 90.85549927 -120.38600159
146.21499634 91.14309692 -126.33799744
152.51800537 90.99250031 -123.22100067
13.53590012 94.97029877 -215.01699829
18.77960014 93.73819733 -189.39300537
20.05879974 93.38619995 -182.07200623
23.86540031 92.44599915 -162.52099609
38.69440079 90.66619873 -125.50700378
43.45109940 90.56559753 -123.41500092
49.08200073 90.48930359 -121.83000183
81.66259766 89.40709686 -99.32399750
109.58300018 89.69580078 -105.32599640
115.68599701 90.07309723 -113.17199707
139.45799255 90.57510376 -123.61299896
151.13200378 90.77210236 -127.71099854
168.91200256 93.84750366 -191.66499329
15.79689980 94.35340118 -211.68699646
16.22669983 94.19660187 -208.40899658
19.20560074 93.16220093 -186.79400635
21.31769943 92.54170227 -173.82800293
22.59180069 92.25610352 -167.85899353
24.26519966 91.82800293 -158.91299438
31.37240028 90.52909851 -131.77000427
33.09120178 90.43520355 -129.80900574
51.68019867 90.02279663 -121.18900299
60.30530167 89.88690186 -118.34999847
66.34580231 89.81680298 -116.88600159
69.77059937 89.74780273 -115.44300079
76.48429871 89.46939850 -109.62599945
83.75170135 88.45310211 -88.38939667
84.03810120 88.30410004 -85.27580261
84.33769989 88.17050171 -82.48269653
85.46779633 88.01550293 -79.24510193
106.45999908 88.82150269 -96.08630371
107.56900024 89.02700043 -100.38200378
110.99700165 89.35820007 -107.30100250
112.95400238 89.53800201 -111.05999756
122.92099762 89.85279846 -117.63899994
136.76899719 90.09200287 -122.63700104
148.10499573 90.35549927 -128.14300537
166.43299866 93.27269745 -189.10299683
16.62479973 93.41510010 -201.57499695
17.92140007 93.06880188 -194.30299377
20.46380043 92.28369904 -177.81700134
25.02050018 90.89749908 -148.70899963
26.19429970 90.37049866 -137.64300537
27.44420052 90.14389801 -132.88400269
45.61909866 89.66609955 -122.85199738
62.89950180 89.42790222 -117.84999847
117.93399811 89.26509857 -114.43000031
125.15699768 89.46109772 -118.54799652
131.42399597 89.57990265 -121.04199982
141.68899536 89.73329926 -124.26300049
154.72200012 89.69699860 -123.50099945
155.94799805 89.90049744 -127.77400208
13.51959991 93.48539734 -212.64799500
17.04529953 92.77610016 -197.68099976
19.17729950 92.12400055 -183.92100525
24.63719940 90.67199707 -153.28100586
26.59950066 89.81439972 -135.18400574
33.92589951 89.45189667 -127.53600311
36.52909851 89.40160370 -126.47399902
53.83179855 89.10569763 -120.23000336
56.41529846 89.05819702 -119.22899628
71.44709778 88.80239868 -113.83100128
73.11190033 88.71540070 -111.99600220
80.53189850 88.29199982 -103.05999756
82.40859985 87.99160004 -96.72149658
83.07890320 87.79080200 -92.48449707
104.80100250 87.29570007 -82.03790283
105.55500031 87.56700134 -87.76280212
106.29000092 87.82109833 -93.12409973
120.16100311 88.87180328 -115.29499817
127.80400085 89.05130005 -119.08300018
134.07400513 89.16760254 -121.53800201
144.37100220 89.33550262 -125.08000183
152.25100708 89.34670258 -125.31600189
170.88900757 92.58209991 -193.58700562
13.95709991 92.89859772 -209.89599609
15.74530029 92.67890167 -205.23699951
17.89570045 92.03109741 -191.49899292
21.72100067 91.01020050 -169.85099792
22.11759949 90.80280304 -165.45399475
39.97790146 88.85890198 -124.23400116
77.25330353 88.05909729 -107.27400208
78.46070099 87.95770264 -105.12500000
106.12999725 87.26010132 -90.33260345
112.81600189 88.12950134 -108.76699829
115.14800262 88.25769806 -111.48699951
153.23800659 88.72280121 -121.34799957
167.17599487 91.83000183 -187.23599243
168.32299805 91.96389771 -190.07400513
19.59239960 91.05970001 -180.43400574
22.96489906 90.18080139 -161.70599365
24.24239922 89.96520233 -157.11199951
29.17639923 88.76170349 -131.46499634
42.13769913 88.37460327 -123.21600342
47.78340149 88.32669830 -122.19599915
49.93310165 88.27259827 -121.04299927
58.56589890 88.14800262 -118.38800049
66.72660065 88.00630188 -115.36799622
74.75740051 87.74340057 -109.76599884
80.84719849 87.30310059 -100.38400269
84.53859711 86.23259735 -77.57099915
105.41799927 86.59809875 -85.36049652
109.00000000 87.41429901 -102.75299835
122.37000275 88.02950287 -115.86199951
126.34600067 88.07440186 -116.81900024
130.38099670 88.15689850 -118.57599640
136.19200134 88.25630188 -120.69499969
138.48599243 88.32980347 -122.26200104
146.59100342 88.48419952 -125.55200195
149.81900024 88.58470154 -127.69300079
16.57550049 91.32569885 -195.75799561
17.86639977 90.97769928 -188.30599976
20.43560028 90.36289978 -175.13999939
20.85409927 90.23419952 -172.38299561
23.38179970 89.62709808 -159.38099670
24.61190033 89.25050354 -151.31700134
31.79619980 88.29730225 -130.90499878
60.70429993 87.65879822 -117.23100281
64.16110229 87.62830353 -116.57800293
68.85109711 87.51110077 -114.06800079
84.22409821 85.92030334 -80.00039673
104.55999756 85.81770325 -77.80229950
107.74700165 86.66899872 -96.03269958
110.81900024 87.05519867 -104.30400085
117.35900116 87.42279816 -112.17600250
132.66000366 87.78959656 -120.03199768
170.27699280 91.13909912 -191.76199341
11.70259953 91.74359894 -214.50300598
15.26070023 91.13819885 -201.47300720
21.69829941 89.57520294 -167.83599854
24.96570015 88.49230194 -144.52900696
26.57469940 87.97599792 -133.41799927
26.97690010 87.85749817 -130.86599731
37.81869888 87.60369873 -125.40399933
44.29890060 87.46219635 -122.35900116
52.09000015 87.36409760 -120.24800110
81.90200043 86.19049835 -94.98950195
82.95269775 85.94339752 -89.67120361
83.21489716 85.77200317 -85.98159790
83.90920258 85.60769653 -82.44609833
108.39399719 86.41179657 -99.75299835
112.23500061 86.71630096 -106.30500031
119.58899689 87.03399658 -113.14399719
140.69900513 87.47810364 -122.70099640
142.94900513 87.52020264 -123.60800171
151.70500183 87.78949738 -129.40199280
153.47399902 87.55010223 -124.25099945
155.75900269 87.60769653 -125.48899841
157.19200134 87.92040253 -132.22099304
12.60039997 91.16300201 -211.83799744
16.55179977 90.29039764 -192.96499634
17.83860016 89.93479919 -185.27400208
18.71719933 89.82579803 -182.91499329
20.01580048 89.59410095 -177.90400696
24.58340073 88.26270294 -149.10499573
25.73530006 87.66649628 -136.20899963
32.63199997 87.31330109 -128.57099915
35.23030090 87.24700165 -127.13700104
54.67710114 86.88649750 -119.33799744
71.39589691 86.56980133 -112.48799896
72.60959625 86.46540070 -110.23000336
75.53610229 86.34380341 -107.59899902
77.94329834 86.13510132 -103.08699799
81.17489624 85.90090179 -98.02030182
114.61699677 86.44989777 -109.89499664
124.49800110 86.69400024 -115.17600250
134.78300476 86.88339996 -119.27300262
152.35899353 87.22460175 -126.65299988
156.42100525 87.29620361 -128.20100403
13.93089962 90.44670105 -206.19799805
14.79010010 90.13069916 -199.32800293
23.76720047 88.07369995 -154.61199951
39.52289963 86.63590240 -123.35700226
47.73860168 86.50119781 -120.42800140
56.80720139 86.37999725 -117.79199982
76.73480225 85.80010223 -105.18599701
107.50900269 85.19000244 -91.92469788
117.22799683 86.02570343 -110.09100342
122.25599670 86.21050262 -114.10900116
128.08200073 86.33280182 -116.76699829
130.70100403 86.33950043 -116.91300201
145.16900635 86.67019653 -124.10199738
148.38999939 86.76740265 -126.21499634
154.02000427 86.49310303 -120.25099945
155.07899475 86.59819794 -122.53600311
13.49689960 90.13449860 -209.32800293
14.75889969 89.48760223 -195.19500732
16.53009987 89.26820374 -190.40100098
21.27829933 88.34609985 -170.25399780
22.10659981 88.08290100 -164.50500488
24.55389977 87.27300262 -146.80799866
29.16200066 86.52790070 -130.52799988
62.41360092 85.87750244 -116.31900024
64.97699738 85.81849670 -115.02999878
67.08599854 85.73809814 -113.27200317
79.56199646 85.15650177 -100.56500244
81.75150299 84.74520111 -91.58020020
83.26570129 84.10829926 -77.66300201
106.00000000 84.24369812 -80.62129974
108.71099854 85.03029633 -97.80799866
109.81700134 85.22019958 -101.95800018
133.35099792 85.93119812 -117.49199677
137.44099426 86.04119873 -119.89499664
167.69299316 89.15840149 -188.00199890
169.65100098 89.23909760 -189.76499939
13.91409969 89.42749786 -203.82099915
16.95499992 88.67549896 -187.30900574
18.69669914 88.37860107 -180.78799438
41.67879868 85.71040344 -122.19499969
49.89670181 85.59549713 -119.67099762
58.96450043 85.48400116 -117.22399902
69.20899963 85.24629974 -112.00399780
82.19609833 83.89450073 -82.31670380
111.64299774 84.86540222 -103.63800049
114.00199890 85.01519775 -106.92700195
119.05899811 85.22899628 -111.62300110
123.89399719 85.27459717 -112.62400055
126.66000366 85.38410187 -115.02899933
140.14300537 85.66040039 -121.09700012
142.40199280 85.70809937 -122.14399719
171.26100159 88.91950226 -192.66600037
10.78579998 89.44059753 -214.15299988
15.18910027 88.44920349 -192.27000427
20.42460060 87.62619781 -174.10499573
21.68849945 87.30290222 -166.96800232
22.52580070 87.08799744 -162.22700500
22.93899918 86.96630096 -159.54100037
29.10840034 85.49459839 -127.05599976
31.34259987 85.62660217 -129.96899414
36.07889938 85.43720245 -125.79000092
45.15470123 85.25090027 -121.67700195
52.04460144 85.11199951 -118.61199951
70.87429810 84.72969818 -110.17299652
73.41429901 84.66100311 -108.65599823
80.25409698 84.11620331 -96.63269806
81.00330353 84.00109863 -94.09159851
81.60929871 83.74140167 -88.35949707
107.12100220 83.60040283 -85.24610138
107.80400085 83.79920197 -89.63590240
116.24500275 84.64070129 -108.20899963
129.24899292 84.93859863 -114.78299713
135.97500610 85.07039642 -117.69300079
150.66700745 85.50849915 -127.36299896
152.19999695 85.38729858 -124.68800354
157.08399963 85.43129730 -125.66000366
158.52000427 85.73560333 -132.37500000
162.28999329 86.81400299 -156.17900085
163.27600098 87.10330200 -162.56500244
164.26400757 87.39230347 -168.94400024
165.24600220 87.67610168 -175.20599365
166.23399353 87.96170044 -181.50999451
11.21800041 88.78410339 -209.73599243
17.37470055 87.61489868 -183.79499817
19.11560059 87.33899689 -177.67500305
23.34849930 86.39140320 -156.65199280
24.15870094 86.11389923 -150.49400330
26.15570068 85.40859985 -134.84700012
26.99690056 85.29250336 -132.27099609
33.49810028 85.10310364 -128.07000732
54.62850189 84.63439941 -117.67099762
60.19879913 84.51540375 -115.03199768
62.77510071 84.47499847 -114.13400269
75.06790161 84.14050293 -106.71399689
81.49069977 83.19210052 -85.67269897
82.50489807 82.92220306 -79.68479919
103.93099976 82.67579651 -74.21839905
106.26499939 82.83869934 -77.83280182
121.18199921 84.33100128 -110.93900299
131.88400269 84.52259827 -115.19000244
138.59500122 84.64179993 -117.83499908
145.03700256 84.84709930 -122.38899994
146.95500183 84.94779968 -124.62500000
153.28799438 84.82779694 -121.96099854
153.86999512 84.66819763 -118.42199707
157.72099304 85.10250092 -128.05700684
159.22099304 85.43830109 -135.50599670
160.18499756 85.71880341 -141.72900391
161.13200378 85.98940277 -147.73300171
162.08700562 86.26229858 -153.78599548
163.06900024 86.54789734 -160.12399292
166.99899292 87.67739868 -185.18200684
13.02379990 88.19580078 -206.79200745
13.87600040 87.82129669 -198.44099426
37.79100037 84.48429871 -124.02400208
56.76670074 84.14479828 -116.45400238
64.89250183 83.97160339 -112.59200287
67.02089691 83.92070007 -111.45600128
75.80130005 83.56310272 -103.48100281
77.89179993 83.49019623 -101.85500336
82.74949646 82.31539917 -75.65720367
110.07499695 83.36399841 -99.04029846
118.48699951 83.83080292 -109.45099640
126.07299805 83.97949982 -112.76799774
140.82899475 84.24160004 -118.61299896
143.57699585 84.32199860 -120.40399933
155.82499695 84.34899902 -121.00800323
165.05900574 86.68139648 -173.02000427
13.44309998 87.50350189 -201.48599243
14.30189991 87.19850159 -194.64900208
15.62539959 87.00350189 -190.27799988
20.38199997 86.10169983 -170.06500244
23.75390053 85.36450195 -153.53900146
24.93950081 84.87319946 -142.52499390
27.39229965 84.28340149 -129.30599976
39.94749832 83.99330139 -122.80300140
46.86240005 83.87860107 -120.23100281
79.49199677 82.92829895 -98.92980194
80.46499634 82.60079956 -91.58830261
84.36039734 81.80269623 -73.69650269
109.45500183 82.79000092 -95.82949829
113.43399811 83.18530273 -104.69100189
134.09700012 83.67919922 -115.76000214
136.70399475 83.67890167 -115.75399780
149.61599731 84.09770203 -125.14099884
168.67199707 86.94159698 -188.89199829
170.25399780 87.05770111 -191.49499512
10.31700039 87.51390076 -211.96200562
18.23760033 86.08589935 -179.78300476
19.09259987 85.88890076 -175.34399414
21.65940094 85.40249634 -164.38400269
24.13310051 84.69609833 -148.46600342
25.31529999 84.21649933 -137.66000366
34.33250046 83.69239807 -125.85099792
42.53850174 83.50589752 -121.64800262
49.86729813 83.36910248 -118.56500244
68.69539642 82.98139954 -109.83000183
70.80979919 82.92099762 -108.46900177
72.91739655 82.85659790 -107.01599884
107.22599792 81.64510345 -79.71880341
111.48000336 82.58630371 -100.92600250
115.70400238 82.83260345 -106.47799683
123.34799957 83.02989960 -110.92099762
128.67399597 83.11029816 -112.73500061
131.31100464 83.13200378 -113.22299957
142.95799255 83.34400177 -117.99900055
153.70100403 83.27140045 -116.36299896
156.94900513 83.61199951 -124.03900146
12.10190010 86.75260162 -205.06399536
16.50000000 85.94840240 -186.84899902
24.53499985 84.11609650 -145.34399414
27.35960007 83.30829620 -127.04699707
29.97489929 83.28690338 -126.56199646
31.31979942 83.37660217 -128.59300232
51.99689865 82.85990143 -116.88899994
58.00740051 82.75000000 -114.40100098
61.86069870 82.67680359 -112.74199677
79.75849915 81.89839935 -95.11070251
80.29489899 81.57019806 -87.67559814
80.97869873 81.39700317 -83.75219727
102.18099976 80.93640137 -73.31980133
105.67900085 81.01319885 -75.05819702
120.59700012 82.49320221 -108.58300018
139.34199524 82.82820129 -116.17199707
145.69900513 82.98329926 -119.68399811
147.17599487 83.07939911 -121.86100006
152.07699585 83.13700104 -123.16500092
14.74059963 85.75779724 -192.77799988
19.51499939 84.87909698 -172.77000427
20.80839920 84.67590332 -168.14199829
22.07419968 84.39199829 -161.67700195
26.13120079 83.13580322 -133.07200623
36.05310059 82.75659943 -124.43800354
44.69269943 82.58719635 -120.58100128
54.14319992 82.38269806 -115.92500305
64.40670013 82.16999817 -111.08100128
74.55370331 81.88849640 -104.67099762
76.15090179 81.74810028 -101.47399902
81.19249725 80.75759888 -78.91909790
108.35500336 80.99949646 -84.42759705
109.12400055 81.25389862 -90.22059631
114.18599701 81.80950165 -102.87200165
118.34200287 81.99739838 -107.15000153
125.90799713 82.13619995 -110.30999756
129.83999634 82.15660095 -110.77500153
133.92300415 82.26850128 -113.32499695
136.55599976 82.28610229 -113.72499847
152.75700378 82.59660339 -120.79399872
155.23199463 82.52249908 -119.10800171
172.23699951 85.78839874 -193.47500610
10.75030041 85.95469666 -207.64100647
11.18019962 85.75589752 -203.09100342
12.97369957 85.58660126 -199.21499634
16.92390060 84.91059875 -183.74000549
22.48970032 83.83630371 -159.14799500
23.72170067 83.47799683 -150.94700623
47.69129944 82.06349945 -118.56600189
66.52239990 81.67310333 -109.62899780
77.80390167 81.24179840 -99.75489807
81.51370239 80.22840118 -76.55709839
82.68460083 80.12619781 -74.21730042
85.58249664 80.05449677 -72.57669830
99.99449921 80.03630066 -72.15959930
110.83200073 81.13430023 -97.29509735
123.21299744 81.64019775 -108.87599945
149.42100525 82.24320221 -122.68000031
170.51400757 85.15370178 -189.30499268
13.40380001 84.98210144 -195.75000000
15.61719990 84.70010376 -189.25900269
22.89970016 83.26570129 -156.25000000
26.53219986 82.14219666 -130.39300537
29.50550079 81.88590240 -124.49500275
37.76969910 81.81929779 -122.96099854
39.92710114 81.77069855 -121.84200287
49.81800079 81.54759979 -116.70800018
55.38719940 81.42579651 -113.90499878
58.38079834 81.36260223 -112.45200348
62.20989990 81.26460266 -110.19599915
68.62529755 81.16580200 -107.92199707
70.73760223 81.10679626 -106.56500244
78.98220062 80.69419861 -97.06849670
88.10009766 79.60310364 -71.95880127
93.18779755 79.59870148 -71.85659790
96.16400146 79.60320282 -71.96050262
107.49299622 79.82189941 -76.99330139
110.19799805 80.55480194 -93.86150360
112.24800110 80.79399872 -99.36620331
116.00299835 81.00980377 -104.33100128
132.45399475 81.29840088 -110.97399902
141.45100403 81.48760223 -115.32700348
144.17700195 81.55490112 -116.87699890
147.87699890 81.67710114 -119.68800354
156.32099915 81.76629639 -121.74099731
169.46699524 84.85600281 -192.84800720
10.71049976 84.72820282 -200.35800171
11.14610004 84.58750153 -197.10400391
17.80080032 83.89790344 -181.14799500
18.66160011 83.72470093 -177.13999939
20.77370071 83.19719696 -164.93600464
24.11809921 82.43430328 -147.28300476
24.94199944 82.23709869 -142.72099304
32.61309814 81.57830048 -127.47899628
42.07600021 81.27500153 -120.46099854
64.33709717 80.78220367 -109.05999756
71.95480347 80.58470154 -104.48899841
79.17729950 80.02629852 -91.56999969
80.45850372 79.59639740 -81.62290192
90.63220215 79.16609955 -71.66829681
103.91300201 79.26239777 -73.89620209
109.38600159 79.84639740 -87.40820313
128.02900696 80.80789948 -109.65299988
138.71800232 80.97940063 -113.62200165
153.81399536 81.15750122 -117.74199677
171.62199402 84.35079956 -191.62500000
13.82699966 83.89479828 -191.53500366
19.93980026 82.99240112 -170.54600525
23.30459976 82.24019623 -153.04800415
25.31889915 81.59020233 -137.92700195
28.22660065 81.10150146 -126.55899811
34.33000183 81.06510162 -125.71299744
43.77299881 80.75530243 -118.50599670
51.07260132 80.59960175 -114.88400269
56.18939972 80.46279907 -111.70200348
60.06779861 80.43049622 -110.95099640
73.61530304 80.07959747 -102.78700256
78.86009979 79.71029663 -94.19730377
79.48940277 79.48049927 -88.85199738
79.81469727 79.37809753 -86.46900177
108.60199738 79.15879822 -81.36859894
118.23999786 80.19799805 -105.54100037
120.50000000 80.26439667 -107.08699799
125.36299896 80.33139801 -108.64499664
134.68299866 80.46800232 -111.82399750
146.38600159 80.70420074 -117.31700134
151.25999451 80.98509979 -123.85199738
10.27830029 83.99919891 -204.55099487
12.48419952 83.53260040 -193.63900757
16.04019928 83.19709778 -185.79200745
21.18799973 82.18240356 -162.05900574
25.70940018 80.99569702 -134.30599976
47.21569824 80.25409698 -116.96099854
53.20800018 80.11039734 -113.60099792
65.55819702 79.82129669 -106.84100342
98.31469727 78.35279846 -72.49559784
101.74600220 78.37960052 -73.12200165
105.70200348 78.47930145 -75.45420074
114.11799622 79.60389709 -101.75599670
123.07099915 79.81600189 -106.71700287
130.14599609 79.91139984 -108.94699860
137.27099609 80.02649689 -111.63899994
141.27900696 80.08630371 -113.03700256
143.57699585 80.15820313 -114.72000122
149.69099426 80.40950012 -120.59600067
153.58599854 80.39559937 -120.27100372
9.83815956 83.67189789 -207.55700684
13.80930042 82.88420105 -189.03300476
19.08079910 82.25119781 -174.14799500
21.60720062 81.63849640 -159.74299622
23.71050072 81.22609711 -150.04499817
24.52840042 81.00450134 -144.83299255
26.51000023 80.32319641 -128.81199646
30.42000008 80.24870300 -127.06099701
36.02470016 80.07409668 -122.95300293
39.89270020 79.95770264 -120.21800232
57.43069839 79.51319885 -109.76399994
68.10790253 79.33619690 -105.60299683
74.82759857 79.12940216 -100.73899841
76.88680267 79.03050232 -98.41359711
80.31659698 78.17829895 -78.37349701
82.31020355 78.04949951 -75.34510040
84.35070038 77.97039795 -73.48590088
94.52220154 77.95159912 -73.04350281
110.35500336 78.64240265 -89.28869629
111.63700104 78.94349670 -96.36730194
116.77799988 79.22170258 -102.91000366
132.76300049 79.48989868 -109.21700287
155.67300415 79.91359711 -119.18099976
169.55099487 82.86640167 -188.61700439
19.91889954 81.56510162 -168.52099609
22.02120018 81.08070374 -157.07000732
24.91559982 80.38860321 -140.70500183
29.05360031 79.66100311 -123.50199890
48.45769882 79.28220367 -114.54399872
54.00839996 79.14309692 -111.25700378
60.00439835 79.04660034 -108.97499847
62.55849838 78.99130249 -107.66799927
70.22579956 78.85559845 -104.45800018
77.20999908 78.49079895 -95.83419800
86.86930084 77.51889801 -72.85389709
108.40000153 77.73380280 -77.93409729
109.56900024 77.95960236 -83.27449799
110.95500183 78.33550262 -92.16139984
126.99400330 78.97010040 -107.16500092
148.60600281 79.42410278 -117.90000153
152.44099426 79.60900116 -122.27200317
157.25999451 79.62039948 -122.54100037
9.81340027 82.55200195 -202.60600281
10.25139999 82.41770172 -199.41299438
11.14200020 82.29010010 -196.38000488
16.46529961 81.71720123 -182.76100159
17.78989983 81.59940338 -179.95899963
37.74060059 79.14080048 -121.50800323
41.60169983 79.02330017 -118.71299744
44.59980011 78.93720245 -116.66899872
50.59510040 78.79489899 -113.28399658
78.86070251 77.57009888 -84.16549683
89.42939758 77.10500336 -73.10910034
91.96360016 77.09339905 -72.83280182
110.14499664 77.63790131 -85.77709961
112.21499634 78.18650055 -98.82050323
119.00499725 78.40429688 -103.99800110
121.26000214 78.46589661 -105.46299744
129.56500244 78.52269745 -106.81300354
135.41099548 78.65309906 -109.91300201
138.88299561 78.65660095 -109.99500275
145.76499939 78.86419678 -114.93299866
171.11999512 82.06649780 -191.06399536
12.92109966 81.62310028 -191.27099609
18.20619965 81.00270081 -176.43899536
20.33699989 80.55789948 -165.80499268
22.43110085 80.07009888 -154.14399719
23.68099976 79.79920197 -147.66700745
25.30380058 79.34439850 -136.79499817
26.10149956 79.09839630 -130.91499329
27.34379959 78.89119720 -125.96099854
32.59849930 78.91929626 -126.63400269
33.86769867 78.82140350 -124.29299927
54.37289810 78.17680359 -108.88300323
65.92079926 78.00869751 -104.86299896
71.89649963 77.92980194 -102.97899628
77.93440247 77.49629974 -92.61530304
78.18109894 77.31580353 -88.29940033
79.17559814 77.03359985 -81.55390167
96.65350342 76.68399811 -73.19619751
99.66059875 76.71029663 -73.82530212
103.51699829 76.73490143 -74.41369629
114.44899750 77.81030273 -100.12200165
124.75700378 78.05840302 -106.05300140
141.14700317 78.27780151 -111.29599762
143.85099792 78.33339691 -112.62699890
150.85699463 78.59329987 -118.83899689
153.82200623 78.55169678 -117.84400177
157.50000000 78.65019989 -120.20099640
11.57680035 81.25420380 -193.26800537
14.69270039 80.96959686 -186.42599487
20.75720024 80.01170349 -163.39900208
45.85929871 77.99150085 -114.83699799
72.65850067 77.39050293 -100.38899994
75.18520355 77.32949829 -98.92150116
80.66989899 76.40589905 -76.72080231
107.03099823 76.39109802 -76.36419678
109.43900299 76.58799744 -81.09700012
111.96499634 77.15260315 -94.66919708
132.18800354 77.67469788 -107.22000122
148.41799927 78.01969910 -115.51399994
19.06879997 79.96019745 -172.92700195
19.48830032 79.84449768 -170.13000488
21.17230034 79.45159912 -160.63200378
22.84449959 79.07910156 -151.62699890
24.89520073 78.56300354 -139.15100098
25.69560051 78.32060242 -133.29100037
30.80229950 77.92400360 -123.70400238
38.56579971 77.73930359 -119.23899841
47.55509949 77.48950195 -113.20200348
51.83670044 77.40290070 -111.10800171
56.51160049 77.27519989 -108.02100372
59.08710098 77.24770355 -107.35500336
61.64479828 77.20020294 -106.20600128
68.04630280 77.10530090 -103.91400146
83.54620361 75.88749695 -74.47409821
116.68699646 77.00360107 -101.45400238
121.13099670 77.08760071 -103.48400116
127.31900024 77.17489624 -105.59700012
136.14199829 77.27660370 -108.05400085
154.45500183 77.56210327 -114.95700073
172.19700623 80.79170227 -193.02600098
13.80949974 80.17590332 -189.05700684
15.57670021 79.97599792 -184.19599915
24.08139992 78.33809662 -144.38000488
24.48880005 78.23010254 -141.75399780
35.14849854 77.44850159 -122.75299835
42.86569977 77.20709991 -116.88600159
69.70580292 76.59909821 -102.10500336
75.93710327 76.35810089 -96.24739838
78.09449768 75.94699860 -86.25299835
79.05809784 75.64129639 -78.82029724
93.69840240 75.42420197 -73.54380035
111.13200378 76.01750183 -87.96649933
113.88200378 76.42620087 -97.90110016
123.76599884 76.68340302 -104.15499878
142.78999329 76.92759705 -110.09200287
146.51899719 77.06600189 -113.45500183
155.93099976 77.21340179 -117.04000092
10.24779987 80.12000275 -198.72900391
16.00729942 79.42720032 -181.78999329
16.87879944 79.29489899 -178.55700684
21.58139992 78.43139648 -157.44599915
26.94799995 77.26119995 -128.83700562
28.18840027 77.06340027 -124.00199890
36.86050034 76.94400024 -121.08399963
43.68429947 76.68289948 -114.69899750
48.79510117 76.52449799 -110.82700348
52.64379883 76.44899750 -108.98100281
62.87939835 76.25969696 -104.35399628
77.41089630 75.68730164 -90.36000061
86.06780243 75.01280212 -73.87030029
90.73860168 75.01069641 -73.81849670
101.41000366 75.04789734 -74.72720337
104.85700226 75.08159637 -75.55339813
108.83000183 75.18219757 -78.01210022
111.83300018 75.77429962 -92.48829651
119.30899811 76.16349792 -102.00099945
129.91799927 76.31400299 -105.68199921
138.76300049 76.42449951 -108.38300323
150.26800537 76.77380371 -116.92099762
152.65400696 76.88040161 -119.52700043
159.19599915 76.88569641 -119.65699768
10.68859959 79.56939697 -196.34700012
17.74550056 78.70600128 -175.12100220
19.90080070 78.36650085 -166.77299500
23.66979980 77.55259705 -146.75999451
25.28400040 77.08709717 -135.31500244
32.56880188 76.66400146 -124.91400146
40.28390121 76.38890076 -118.15100098
45.37939835 76.17769623 -112.95800018
54.31760025 75.93460083 -106.98100281
57.74459839 75.89119720 -105.91200256
64.99810028 75.78009796 -103.18199921
73.44909668 75.59300232 -98.58239746
76.69370270 75.39640045 -93.74639893
78.36289978 74.93920135 -82.50720215
97.54979706 74.59639740 -74.07700348
116.13400269 75.63099670 -99.51509857
132.50999451 75.88069916 -105.65399933
145.08599854 76.12950134 -111.77300262
12.03380013 79.02149963 -194.00599670
20.30069923 77.74220276 -162.37199402
22.42480087 77.38790131 -153.61199951
22.81990051 77.22440338 -149.57000732
26.11240005 76.50219727 -131.70899963
30.33749962 76.10729980 -121.94499969
41.52830124 75.84259796 -115.40000153
59.86669922 75.40930176 -104.68699646
67.55560303 75.31250000 -102.29100037
71.36519623 75.23519897 -100.37999725
81.47039795 74.23239899 -75.58329773
110.24500275 74.42359924 -80.31109619
113.23300171 74.99030304 -94.32499695
122.35500336 75.31659698 -102.39199829
125.89399719 75.36920166 -103.69400024
135.13900757 75.46869659 -106.15599823
137.73800659 75.47129822 -106.22000122
148.78100586 75.81099701 -114.62000275
12.44509983 78.30819702 -187.52499390
14.68959999 78.24749756 -186.01699829
24.88269997 76.32469940 -138.19500732
26.91939926 75.86799622 -126.83799744
46.62089920 75.21269989 -110.54000092
49.60929871 75.14459991 -108.84600067
74.22509766 74.64620209 -96.45220184
79.84680176 73.87870026 -77.36250305
88.20159912 73.74629974 -74.07039642
106.65499878 73.87310028 -77.22329712
111.37899780 74.18470001 -84.97280121
112.57599640 74.41069794 -90.59410095
118.75499725 74.79219818 -100.08200073
128.50900269 74.95140076 -104.04100037
140.91600037 75.11979675 -108.23000336
144.48500061 75.17489624 -109.59999847
153.36999512 75.49780273 -117.62999725
155.76499939 75.39399719 -115.05000305
157.69500732 75.48580170 -117.33200073
13.36330032 77.94960022 -189.83999634
18.17499924 77.28119659 -173.12100220
19.03050041 77.11840057 -169.04899597
24.06940079 76.09410095 -143.42799377
24.47640038 75.98880005 -140.79400635
33.40729904 75.27559662 -122.95400238
36.82529831 75.12899780 -119.28600311
43.20930099 74.87500000 -112.93199921
51.72940063 74.64720154 -107.23400116
55.56179810 74.56549835 -105.19000244
62.39559937 74.47019958 -102.80599976
65.35700226 74.40239716 -101.11199951
68.77040100 74.36370087 -100.14199829
77.16639709 73.73899841 -84.51689911
78.26830292 73.56970215 -80.28230286
84.01850128 73.37889862 -75.50800323
92.47879791 73.34369659 -74.62830353
95.02159882 73.33799744 -74.48639679
99.73490143 73.36630249 -75.19390106
103.16500092 73.38670349 -75.70439911
112.42700195 73.88390350 -88.14070129
114.22100067 74.21489716 -96.42179871
147.26300049 74.83300018 -111.88200378
11.11789989 77.58959961 -192.14799500
16.44179916 77.10590363 -179.97900391
17.31329918 76.98449707 -176.92399597
19.43650055 76.51049805 -164.99800110
20.70779991 76.26509857 -158.82400513
30.29570007 74.69629669 -119.35299683
35.11669922 74.76380157 -121.05200195
38.52849960 74.61949921 -117.42199707
57.68930054 74.09089661 -104.12300110
76.13390350 73.55269623 -90.57969666
76.88909912 73.45500183 -88.12200165
120.95099640 73.95510101 -100.70600128
124.50499725 74.01789856 -102.28600311
131.12100220 74.09980011 -104.34500122
151.00900269 74.53620148 -115.32399750
15.57740021 76.82649994 -184.28100586
21.12520027 75.72329712 -156.36300659
22.79879951 75.38539886 -147.81100464
26.08830070 74.68019867 -129.96299744
27.31590080 74.44580078 -124.03099823
28.59099960 74.35669708 -121.77700043
39.78620148 74.09680176 -115.19999695
44.02479935 73.91940308 -110.70999908
47.43980026 73.83830261 -108.65899658
59.80670166 73.60749817 -102.81800079
71.72930145 73.44270325 -98.64600372
108.43099976 72.64510345 -78.46179962
116.44100189 73.39890289 -97.53869629
127.10900116 73.59549713 -102.51300049
133.68499756 73.65299988 -103.96800232
136.35000610 73.69300079 -104.98000336
139.44099426 73.72789764 -105.86399841
149.47799683 73.98880005 -112.46800232
9.77898979 76.82550049 -195.72300720
21.95569992 75.08280182 -151.36000061
25.27790070 74.43440247 -134.85400391
41.03459930 73.56410217 -112.69799805
49.12590027 73.33750153 -106.92900085
52.97470093 73.27690125 -105.38800049
75.01560211 72.85820007 -94.72949982
86.12609863 72.08760071 -75.11270142
89.94039917 72.07810211 -74.86949921
97.18099976 72.08860016 -75.13710022
111.03600311 72.25129700 -79.27780151
142.10800171 73.33350372 -106.82900238
146.22300720 73.44550323 -109.67800140
154.12100220 73.70120239 -116.18800354
157.54600525 73.67680359 -115.56700134
13.79650021 76.04029846 -187.21899414
15.55920029 75.83699799 -182.01100159
18.16040039 75.42919922 -171.57000732
19.41440010 75.08709717 -162.80900574
31.20789909 73.48760223 -121.84799957
63.20399857 72.68099976 -101.19300079
66.59210205 72.61419678 -99.48259735
72.49990082 72.49089813 -96.32599640
77.07759857 71.94680023 -82.39270020
79.03260040 71.78410339 -78.22669983
81.10459900 71.73339844 -76.92769623
101.45099640 71.67680359 -75.47799683
104.93900299 71.73560333 -76.98529816
112.17600250 72.01039886 -84.02230072
114.06999969 72.39890289 -93.97109985
118.66699982 72.58350372 -98.69850159
123.09500122 72.65560150 -100.54299927
144.36599731 72.94930267 -108.06500244
155.22099304 73.17030334 -113.72499847
11.10840034 75.71610260 -190.48699951
17.28680038 75.07430267 -173.95500183
18.57620049 74.85399628 -168.28100586
23.19720078 73.92030334 -144.22799683
24.02490044 73.75279999 -139.91099548
26.48789978 73.26059723 -127.23300171
34.64649963 72.94809723 -119.18199921
36.35459900 72.88130188 -117.46199799
44.84049988 72.53669739 -108.58300018
54.64870071 72.34030151 -103.52400208
69.15119934 72.15660095 -98.79270172
75.97200012 71.68499756 -86.64430237
93.79730225 71.25160217 -75.47979736
112.76699829 71.68679810 -86.69159698
113.37699890 71.80220032 -89.66419983
125.69300079 72.23139954 -100.71800232
128.21600342 72.19570160 -99.80110168
129.75900269 72.33509827 -103.38999939
135.74899292 72.30680084 -102.66100311
148.42300415 72.59590149 -110.10900116
151.31199646 72.73500061 -113.69200134
10.21630001 75.34989929 -192.70700073
11.54539967 75.16729736 -187.97500610
16.43040085 74.80690002 -178.63600159
24.87010002 73.20919800 -137.23199463
25.67609978 73.00170135 -131.85400391
38.05630112 72.37390137 -115.58499908
41.85879898 72.18750000 -110.75399780
46.96089935 72.03610229 -106.83000183
50.36589813 71.95770264 -104.79799652
57.20470047 71.86550140 -102.40799713
59.31750107 71.81150055 -101.01000214
74.92960358 71.48719788 -92.60389709
76.97470093 70.99829865 -79.93399811
83.63729858 70.86479950 -76.47599792
111.58899689 71.05400085 -81.37809753
116.32700348 71.60690308 -95.70760345
121.25800323 71.72640228 -98.80390167
137.97200012 71.90899658 -103.53500366
158.71499634 72.31169891 -113.97200012
13.78160000 74.60649872 -185.11999512
18.99360085 73.84629822 -165.30099487
20.27269936 73.63230133 -159.72099304
21.53720093 73.39469910 -153.52699280
22.37669945 73.24050140 -149.50500488
26.89399910 72.30280304 -125.05799866
29.01320076 72.14270020 -120.88500214
33.38119888 72.16560364 -121.48200226
39.30599976 71.84110260 -113.02200317
70.37000275 71.22139740 -96.86399841
75.25199890 70.95729828 -89.97850037
76.30840302 70.74459839 -84.43350220
87.83979797 70.39759827 -75.38790131
98.91860199 70.41439819 -75.82420349
107.11199951 70.48870087 -77.76200104
109.33699799 70.55049896 -79.37329865
131.84599304 71.43299866 -102.38200378
140.22399902 71.52529907 -104.78800201
146.51699829 71.64459991 -107.89700317
20.69260025 73.09980011 -157.41900635
30.27589989 71.60169983 -118.12400055
47.77199936 71.09100342 -104.72899628
52.47579956 71.02580261 -103.01699829
61.86980057 70.90969849 -99.97180176
64.44059753 70.89369965 -99.55190277
73.28720093 70.70050049 -94.48619843
90.83989716 69.99060059 -75.86530304
95.92250061 69.97519684 -75.46070099
102.79100037 70.01979828 -76.62989807
114.82900238 70.61920166 -92.35209656
118.55100250 70.79199982 -96.88569641
123.83000183 70.85880280 -98.63649750
133.90299988 70.94869995 -100.99500275
135.02200317 70.85710144 -98.59380341
142.85800171 71.11380005 -105.32700348
150.72300720 71.35949707 -111.76999664
153.56799316 71.47270203 -114.73899841
16.85479927 73.35220337 -175.80200195
22.78709984 72.25420380 -146.82800293
25.26560020 71.76580048 -133.93600464
26.07379913 71.57530212 -128.90800476
54.59149933 70.53949738 -101.57499695
66.09120178 70.38559723 -97.51180267
128.08500671 70.40000153 -97.89320374
129.19299316 70.53530121 -101.46299744
155.54800415 70.95089722 -112.43199921
14.21800041 73.18129730 -183.17300415
15.54790020 73.08460236 -180.60400391
17.72299957 72.78540039 -172.66099548
19.41799927 72.42769623 -163.16299438
21.51359940 71.98570251 -151.42599487
23.60079956 71.60070038 -141.20399475
27.29330063 70.89520264 -122.47200012
31.61820030 70.81430054 -120.32199860
35.90319824 70.67420197 -116.60199738
40.11930084 70.44339752 -110.47499847
42.24470139 70.37470245 -108.65100098
44.37139893 70.31479645 -107.05899811
49.89049911 70.16860199 -103.17700195
56.71770096 70.07099915 -100.58499908
78.64550018 69.26309967 -79.13359833
80.71910095 69.21440125 -77.84059906
85.30760193 69.13739777 -75.79660034
113.01499939 69.43720245 -83.75740051
114.19499969 69.63629913 -89.04429626
126.63400269 70.11949921 -101.87500000
134.01499939 69.91950226 -96.56259918
136.11000061 70.11239624 -101.68499756
145.08000183 70.27950287 -106.12200165
148.34300232 70.39170074 -109.10199738
9.32487011 73.19270325 -195.50599670
10.21000004 73.04319763 -191.50999451
11.55189991 72.95230103 -189.08099365
12.43999958 72.86419678 -186.72700500
18.14159966 72.22180176 -169.56500244
18.56500053 72.13009644 -167.11599731
23.18989944 71.25109863 -143.63000488
24.00289917 71.04689789 -138.17500305
34.20909882 70.33180237 -119.07099915
37.15719986 70.14469910 -114.07099915
59.27339935 69.60399628 -99.62580109
62.23490143 69.54350281 -98.00820160
68.20240021 69.48370361 -96.41000366
70.72869873 69.43060303 -94.99120331
73.61730194 69.31790161 -91.98110199
75.57740021 69.14849854 -87.45510101
76.65190125 68.95999908 -82.41970062
92.97540283 68.72129822 -76.04270172
100.67099762 68.74810028 -76.75669861
104.95899963 68.76940155 -77.32790375
110.70300293 68.90070343 -80.83499908
116.24199677 69.40689850 -94.35790253
120.68199921 69.49009705 -96.58049774
130.77699280 69.59780121 -99.45860291
138.73699951 69.70099640 -102.21499634
152.96099854 70.09049988 -112.62400055
158.14399719 70.08020020 -112.34899902
26.47990036 70.17900085 -126.66500092
38.41870117 69.63610077 -112.06999969
46.04700089 69.36750031 -104.84999847
83.24400330 68.33850098 -77.18450165
88.72789764 68.30059814 -76.16709900
97.64890289 68.29219818 -75.94149780
107.60199738 68.40039825 -78.84899902
114.02400208 68.67639923 -86.26830292
118.86100006 69.00129700 -95.00469971
125.57499695 69.14880371 -98.96970367
140.95799255 69.30079651 -103.05699921
147.29699707 69.44069672 -106.81600189
150.56599426 69.55229950 -109.81800079
155.31700134 69.74069977 -114.88300323
19.82999992 70.97090149 -159.91299438
20.68239975 70.84369659 -156.47000122
28.56340027 69.49400330 -119.95899963
51.13800049 68.80989838 -101.45200348
64.35540009 68.64869690 -97.09239960
75.88819885 68.18720245 -84.60659790
95.13390350 67.89330292 -76.65519714
115.19499969 68.43589783 -91.33509827
123.30500031 68.65299988 -97.20839691
143.66600037 68.92620087 -104.59799957
13.77970028 71.44239807 -184.85499573
15.08139992 71.20629883 -178.42700195
15.95720005 71.10679626 -175.72000122
21.92449951 70.11229706 -148.64599609
24.40819931 69.62909698 -135.49299622
29.82819939 68.96189880 -117.32900238
40.51670074 68.64920044 -108.81800079
42.20069885 68.57160187 -106.70400238
47.73289871 68.44290161 -103.20200348
53.69369888 68.33820343 -100.35099792
71.95739746 68.08399963 -93.43000031
74.36759949 67.93229675 -89.30010223
102.43299866 67.51080322 -77.82649994
112.47599792 67.66190338 -81.93869781
132.96000671 68.32019806 -99.85939789
137.31799316 68.34480286 -100.53099823
16.82299995 70.52809906 -172.15199280
18.54430008 70.26599884 -164.97099304
21.08970070 69.83439636 -153.14700317
25.25049973 69.09169769 -132.80000305
25.63769913 68.95369720 -129.01800537
33.74470139 68.53150177 -117.45400238
38.37559891 68.25839996 -109.97000122
43.89039993 68.07689667 -104.99800110
55.81510162 67.86650085 -99.23549652
60.07680130 67.81510162 -97.82659912
66.45200348 67.73269653 -95.56900024
68.98919678 67.69139862 -94.43949890
77.00250244 67.18620300 -80.59790039
79.90280151 67.11519623 -78.65299988
86.19889832 67.04260254 -76.66380310
90.86270142 67.03029633 -76.32630157
115.43299866 67.46669769 -88.28109741
117.46099854 67.64830017 -93.25679779
127.67400360 67.82800293 -98.18150330
134.10200500 67.81330109 -97.77729797
149.50300598 68.16320038 -107.36399841
156.46400452 68.36920166 -113.00700378
158.87899780 68.28829956 -110.79100037
8.42195034 70.95400238 -196.23599243
9.31361961 70.84200287 -193.14700317
11.54699993 70.66419983 -188.24499512
14.21329975 70.45729828 -182.53900146
17.23929977 69.95320129 -168.64199829
22.33049965 69.11589813 -145.55799866
22.73979950 69.01840210 -142.86799622
23.58359909 68.90769958 -139.81700134
27.28529930 68.25869751 -121.92400360
31.59830093 68.15760040 -119.13600159
35.43190002 67.99569702 -114.67099762
62.19020081 67.34290314 -96.67420197
74.69730377 66.98690033 -86.86009979
99.39409637 66.62030029 -76.75299835
105.87500000 66.68209839 -78.45610046
109.35800171 66.72799683 -79.72219849
113.89800262 66.89160156 -84.23259735
120.57399750 67.27890015 -94.91130066
125.46600342 67.36750031 -97.35169983
130.67599487 67.39129639 -98.00990295
139.53700256 67.51329803 -101.37300110
145.83700562 67.63539886 -104.73999786
152.39399719 67.86219788 -110.99199677
10.66049957 70.31999969 -191.21699524
18.96769905 69.29160309 -162.68200684
26.89229965 67.93129730 -124.93499756
36.69100189 67.48079681 -112.43599701
45.58060074 67.15670013 -103.44400024
48.97460175 67.07510376 -101.17900085
72.72530365 66.71250153 -91.11889648
75.81030273 66.40959930 -82.71420288
93.41310120 66.17800140 -76.28620148
116.88999939 66.70860291 -91.01039886
141.76899719 67.11820221 -102.37500000
7.97853994 70.13369751 -198.63900757
19.80229950 68.65119934 -157.23699951
40.04690170 66.85590363 -107.09999847
41.73360062 66.78639984 -105.15799713
51.53300095 66.60690308 -100.14499664
53.64099884 66.54900360 -98.52760315
57.50120163 66.53170013 -98.04489899
64.30819702 66.44889832 -95.73200226
82.00650024 65.81639862 -78.06800079
88.31079865 65.75450134 -76.34030151
96.40229797 65.76029968 -76.50140381
123.19599915 66.44329834 -95.57589722
135.91299438 66.56569672 -98.99549866
144.00999451 66.72579956 -103.46499634
148.03199768 66.78730011 -105.18299866
151.36199951 66.92220306 -108.94999695
12.88249969 69.21050262 -185.44299316
14.63949966 68.99479675 -179.38000488
15.94729996 68.82160187 -174.51199341
17.66799927 68.54270172 -166.67100525
21.07010078 67.99810028 -151.36300659
25.22380066 67.26660156 -130.80200195
26.05340004 67.14679718 -127.43499756
28.11450005 66.84909821 -119.06700134
28.94820023 66.76390076 -116.67199707
59.17060089 66.04280090 -96.40239716
67.26049805 65.96289825 -94.15560150
69.36009979 65.91719818 -92.87090302
78.68879700 65.46450043 -80.14589691
84.53420258 65.36940002 -77.47399902
101.54100037 65.35620117 -77.10179901
111.16000366 65.50689697 -81.33879852
115.30699921 65.68199921 -86.25939941
119.12999725 65.90429688 -92.50920105
127.09100342 66.02690125 -95.95600128
154.20599365 66.59529877 -111.93299866
156.70399475 66.55120087 -110.69200134
16.81550026 68.25930023 -171.28300476
21.91749954 67.43769836 -148.03599548
23.98439980 67.03730011 -136.70899963
24.39100075 66.94740295 -134.16400146
31.13739967 66.36180115 -117.59500122
33.72409821 66.31629944 -116.30799866
46.83240128 65.80079651 -101.72399902
73.07219696 65.35269928 -89.04519653
75.05120087 65.21119690 -85.04049683
103.72100067 64.96340179 -78.03130341
107.61299896 64.99909973 -79.04049683
132.48300171 65.71189880 -99.20749664
137.74000549 65.75399780 -100.40000153
158.74400330 66.06520081 -109.20500183
8.86705971 68.62539673 -194.45199585
10.64659977 68.42220306 -188.66600037
20.21829987 67.22509766 -154.57099915
23.16679955 66.77439880 -141.73599243
26.86409950 66.11509705 -122.95800018
30.65500069 65.82499695 -114.69599915
36.22710037 65.69090271 -110.87799835
37.90499878 65.59439850 -108.12899780
43.42990112 65.44170380 -103.77999878
55.74779892 65.20339966 -96.99259949
61.29600143 65.15619659 -95.64710236
70.57669830 64.99310303 -91.00319672
90.44110107 64.48049927 -76.40480042
112.95400238 64.70420074 -82.77590179
116.74800110 64.91439819 -88.76270294
121.34999847 65.08580017 -93.64489746
129.31900024 65.20610046 -97.07009888
140.34399414 65.33139801 -100.63899994
146.17700195 65.43440247 -103.57199860
149.45100403 65.54470062 -106.71399689
6.62801981 68.42960358 -201.82000732
9.76025963 68.08640289 -191.97900391
13.31869984 67.78450012 -183.32400513
15.07369995 67.57910156 -177.43600464
18.53510094 67.11090088 -164.01199341
18.95280075 67.01159668 -161.16600037
22.32449913 66.44940186 -145.04899597
34.55310059 65.37049866 -114.11699677
48.51070023 64.87539673 -99.92269897
65.10870361 64.67030334 -94.04209900
73.84529877 64.42299652 -86.95369720
76.62460327 64.24199677 -81.76470184
80.33910370 64.14170074 -78.88870239
86.64900208 64.08229828 -77.18630219
94.69390106 64.05400085 -76.37319946
98.11849976 64.06780243 -76.76940155
124.90000153 64.71579742 -95.34729767
134.55200195 64.80989838 -98.04470062
142.98699951 64.92620087 -101.37899780
153.16900635 65.22250366 -109.87300110
156.89399719 65.14990234 -107.79399872
7.06614017 67.81800079 -197.28399658
13.75139999 67.24900055 -180.86300659
17.24139977 66.83370209 -168.87800598
25.63899994 65.45610046 -129.11799622
27.70639992 65.17179871 -120.91200256
39.58649826 64.64769745 -105.78800201
51.06629944 64.40709686 -98.84190369
67.62139893 64.17949677 -92.27549744
105.85199738 63.68679810 -78.05439758
109.39199829 63.76449966 -80.29660034
114.76399994 63.90729904 -84.41719818
118.60399628 64.13490295 -90.98809814
131.39700317 64.31020355 -96.04740143
137.16200256 64.39219666 -98.41230011
151.68299866 64.70939636 -107.56700134
11.98209953 66.96250153 -185.60200500
19.80209923 65.98549652 -157.21499634
21.05170059 65.72669983 -149.69599915
28.52930069 64.62590027 -117.71199799
44.67839813 64.07920074 -101.82800293
53.18650055 63.93679810 -97.68979645
57.43289948 63.87300110 -95.83830261
82.41079712 63.24489975 -77.58820343
92.52909851 63.17750168 -75.62779999
121.21299744 63.72520065 -91.54170227
123.46099854 63.77870178 -93.09829712
148.41099548 64.17150116 -104.51100159
155.76199341 64.35330200 -109.79299927
157.57600403 64.21009827 -105.63099670
15.93680000 66.08920288 -173.24200439
18.11470032 65.86560059 -166.70199585
20.63680077 65.37149811 -152.24899292
23.13979912 64.93620300 -139.51499939
32.40620041 64.11540222 -115.50499725
36.19150162 63.89450073 -109.04199982
41.27859879 63.72639847 -104.12500000
62.10609818 63.38579941 -94.16320038
70.92949677 63.21009827 -89.02159882
75.42659760 63.03049850 -83.77030182
78.26999664 62.91270065 -80.32219696
88.73059845 62.77249908 -76.22290039
96.32399750 62.73099899 -75.00859833
100.24500275 62.79029846 -76.74320221
102.81199646 62.79880142 -76.99130249
116.61900330 63.13130188 -86.71730042
127.05799866 63.43069839 -95.47519684
145.18800354 63.65219879 -101.95400238
5.72536993 66.68550110 -203.99499512
7.50890017 66.36329651 -194.50599670
23.54730034 64.40730286 -136.89799500
24.38549995 64.29979706 -133.73100281
26.04960060 64.07649994 -127.15499878
31.06800079 63.60979843 -113.41100311
34.95360184 63.57260132 -112.31600189
46.36339951 63.16159821 -100.21099854
59.54370117 62.97200012 -94.62680054
68.84190369 62.83119965 -90.47910309
84.93489838 62.37129974 -76.93530273
108.02300262 62.43379974 -78.77610016
111.16699982 62.52479935 -81.45639801
118.45099640 62.76760101 -88.60569763
133.54100037 63.01739883 -95.96179962
139.38000488 63.13040161 -99.29090118
150.26199341 63.35960007 -106.04000092
6.16809988 66.09899902 -200.09599304
9.75366974 65.78079987 -190.66000366
11.09370041 65.68800354 -187.90600586
12.41880035 65.53669739 -183.41999817
15.06070042 65.27850342 -175.76300049
18.52549934 64.84850311 -163.01199341
22.30389977 64.18340302 -143.29100037
26.86499977 63.49990082 -123.02300262
38.32270050 62.97280121 -107.39199829
48.48210144 62.68399811 -98.82790375
54.87310028 62.60589981 -96.51129913
64.21549988 62.48939896 -93.05519867
72.12259674 62.27389908 -86.66729736
113.35800171 62.12990189 -82.39579773
129.61300659 62.55929947 -95.13009644
135.76300049 62.62060165 -96.94719696
142.03100586 62.72880173 -100.15499878
153.52699280 63.02550125 -108.95500183
155.51800537 62.95520020 -106.86799622
14.19040012 64.95210266 -179.40899658
15.91399956 64.65319824 -170.48300171
19.78129959 64.14129639 -155.19900513
21.47260094 63.89279938 -147.77999878
29.35910034 62.79990005 -115.14700317
42.52750015 62.36240005 -102.08100128
50.60319901 62.21400070 -97.65029907
65.87339783 62.00419998 -91.38819885
75.76840210 61.67959976 -81.69570160
79.47989655 61.58010101 -78.72319794
90.80319977 61.45959854 -75.12529755
94.18620300 61.44779968 -74.77210236
98.43499756 61.44660187 -74.73780060
104.91799927 61.50949860 -76.61430359
115.57199860 61.74580002 -83.67099762
125.18599701 62.06539917 -93.21499634
147.41700745 62.38880157 -102.87200165
152.48100281 62.51879883 -106.75299835
7.06793022 65.11389923 -197.78199768
17.68300056 64.13330078 -168.29899597
19.36829948 63.79869843 -158.24000549
25.23310089 62.90930176 -131.49600220
27.69120026 62.52289963 -119.87899780
33.24110031 62.31349945 -113.58200073
