128.97404480 -60.48740768 -50.05879211
136.39418030 -60.56200790 -54.65671539
166.53123474 -61.05215836 -84.69474792
30.87237930 -61.58565140 -89.91630554
37.16078186 -61.38628006 -78.02633667
45.92239380 -61.20753479 -67.39442444
55.89968109 -61.07352829 -59.45272827
65.85382080 -60.97997665 -53.93219376
69.15493011 -60.94701004 -51.98744583
76.54724884 -60.86859894 -47.35329437
90.60095215 -60.80045319 -43.39247513
102.31590271 -60.81076050 -44.11301041
116.94477844 -60.81560516 -44.53611374
131.52474976 -60.91598129 -50.67665100
150.92919922 -61.13562775 -64.00153351
153.45574951 -61.13440704 -63.95024490
157.93891907 -61.19112396 -67.38671112
164.04188538 -61.40488434 -80.25084686
168.76911926 -61.49977112 -85.97813416
31.27330399 -61.95658875 -86.54612732
38.41166687 -61.77581406 -75.92443848
40.90425873 -61.70347214 -71.67330933
71.61376953 -61.33453369 -50.13711548
78.98633575 -61.25242233 -45.34799576
81.85411835 -61.22588730 -43.80485916
87.26259613 -61.21796036 -43.38362885
93.53532410 -61.22279358 -43.72881317
108.62130737 -61.24229813 -45.01232529
111.19836426 -61.26522827 -46.39117432
119.12359619 -61.26037598 -46.17089844
142.10676575 -61.46384048 -58.39710999
147.37852478 -61.51641846 -61.54473114
159.81254578 -61.65305710 -69.73156738
160.85395813 -61.69489288 -72.20885468
162.29885864 -61.73181915 -74.40342712
166.30618286 -61.85887527 -81.94844055
32.10581207 -62.33922195 -83.94747925
33.36391830 -62.29761505 -81.53477478
41.71989059 -62.08753967 -69.35919189
47.15217972 -62.01382446 -65.10929108
50.47783279 -61.96427536 -62.25279999
57.54235458 -61.88413239 -57.64036179
84.76161194 -61.63664246 -43.45243073
96.89377594 -61.64762115 -44.19591522
100.29860687 -61.67143631 -45.61721039
104.44694519 -61.66083908 -45.03431320
113.65112305 -61.66577148 -45.39928055
133.29304504 -61.77845001 -52.13950729
138.55490112 -61.83728027 -55.61670685
144.64219666 -61.88737106 -58.58756256
149.91807556 -61.94028473 -61.72151566
163.78381348 -62.20119858 -77.05167389
168.56182861 -62.31091690 -83.48811340
43.38815308 -62.48105240 -67.66309357
53.79524231 -62.33799744 -59.52744293
60.03803635 -62.28413391 -56.48509979
62.10353470 -62.25889206 -55.05000305
67.06537628 -62.20965958 -52.25840759
73.22488403 -62.13661194 -48.11388016
88.99379730 -62.07922745 -44.94956970
106.60038757 -62.10123062 -46.36954117
115.40739441 -62.11051941 -46.98016357
121.26557922 -62.11174393 -47.09862137
123.81626129 -62.12411499 -47.83313370
127.61437225 -62.13353348 -48.40964508
135.81761169 -62.20016861 -52.31342697
141.12013245 -62.26848221 -56.29034424
155.30140686 -62.43618011 -66.05926514
166.10554504 -62.66822052 -79.49874878
34.62334061 -63.11577988 -79.61247253
38.80690002 -63.00808334 -73.53923798
44.62535858 -62.86761856 -65.61634064
48.38369370 -62.82266617 -63.09646988
64.15499878 -62.64623642 -53.21791458
69.51409912 -62.58831406 -49.97614288
86.08287811 -62.50292969 -45.27162170
91.50713348 -62.49995804 -45.15087509
95.72946167 -62.51794052 -46.20913315
117.97766876 -62.54793930 -48.10523605
130.18228149 -62.56789017 -49.34931183
143.08091736 -62.75949860 -60.33339691
152.90098572 -62.79087448 -62.20258331
170.53021240 -63.21906662 -86.66183472
29.55846405 -63.65443039 -85.90177917
35.44568634 -63.49138641 -76.81487274
75.25894165 -62.94169998 -46.36304855
81.08194733 -62.92686081 -45.58514786
98.22387695 -62.93061829 -45.94364929
102.38409424 -62.92354584 -45.58285522
104.13992310 -62.95435333 -47.32854462
109.56475067 -62.95023727 -47.14167023
112.91650391 -62.95250320 -47.29908752
146.80299377 -63.16361618 -59.42284775
157.60462952 -63.32513046 -68.56515503
160.08950806 -63.31295776 -67.90379333
161.99853516 -63.36180115 -70.65723419
167.92947388 -63.54554749 -81.00506592
171.18751526 -63.60448837 -84.33765411
39.20180130 -63.81433868 -71.20281219
50.44319153 -63.61812973 -60.44741440
55.44559860 -63.57272339 -57.98120117
77.73606873 -63.34310150 -45.47739792
83.57913208 -63.33978271 -45.34589767
92.83802032 -63.36857605 -47.01430511
99.56777191 -63.38386917 -47.92185974
114.67638397 -63.39965439 -48.92535400
121.38533020 -63.40335846 -49.19010925
125.16104889 -63.40567780 -49.35391998
132.74163818 -63.41842270 -50.12213135
137.56524658 -63.47681427 -53.39666367
149.37077332 -63.59501648 -60.03329849
163.45883179 -63.82793427 -73.03866577
165.46362305 -63.89652252 -76.85098267
30.81613541 -64.45288849 -82.86211395
41.69881439 -64.17711639 -67.90010071
45.43799210 -64.09823608 -63.62212753
57.08879852 -63.96089935 -56.22397995
59.15625763 -63.93416595 -54.78237915
65.36513519 -63.87220001 -51.45353317
67.42280579 -63.84717560 -50.10289383
70.71598816 -63.81167603 -48.19464493
88.22064972 -63.77864838 -46.54407883
96.25589752 -63.81673431 -48.69506836
106.27148438 -63.80587387 -48.19006729
111.78931427 -63.83315277 -49.72388458
140.12998962 -63.90910339 -54.12322617
143.23413086 -63.95262527 -56.52712631
155.07150269 -64.07057953 -63.06891632
156.91198730 -64.10711670 -65.08290100
167.73397827 -64.35387421 -78.65341949
27.86043930 -64.97004700 -87.73067474
32.49869537 -64.82909393 -80.16954803
33.75530243 -64.78749084 -77.94014740
36.27048492 -64.72342682 -74.50392914
42.93294525 -64.55552673 -65.50711060
47.09651566 -64.48745728 -61.87376404
52.09244156 -64.42667389 -58.63827515
61.64334869 -64.32959747 -53.48793030
84.08602905 -64.21942902 -47.74412918
102.07988739 -64.22152710 -48.01071548
118.08225250 -64.25548553 -49.98630905
127.31595612 -64.26179504 -50.40446472
134.52677917 -64.28709412 -51.83179855
145.81387329 -64.38803101 -57.37269592
151.55168152 -64.45586395 -61.08245087
170.13157654 -64.83921051 -81.92033386
72.77640533 -64.62939453 -47.20470428
78.22420502 -64.63510132 -47.56080246
80.72312164 -64.62931061 -47.27245331
90.36221313 -64.63825226 -47.83021545
108.01686096 -64.66940308 -49.64354706
122.73335266 -64.68860626 -50.79750443
129.86582947 -64.69137573 -51.00512695
161.69366455 -64.98377228 -66.85985565
162.71362305 -65.02467346 -69.04608917
165.66522217 -65.11992645 -74.14678192
172.33938599 -65.28250122 -82.86590576
28.27106857 -65.77556610 -85.12762451
37.09387207 -65.52938843 -72.25144958
39.59548187 -65.46488953 -68.88021088
48.75254440 -65.29806519 -60.18173218
53.73891068 -65.23405457 -56.86129379
63.27336502 -65.13317871 -51.63662338
75.29452515 -65.05259705 -47.49931335
86.61029816 -65.06300354 -48.14815521
92.49678802 -65.07583618 -48.87377548
98.38709259 -65.08840179 -49.58642578
104.24040985 -65.08487701 -49.44991302
113.94754028 -65.11208344 -50.96706772
120.23767853 -65.11343384 -51.09300232
132.02220154 -65.12870789 -51.99996567
147.96559143 -65.24193573 -58.09780884
154.08665466 -65.30017090 -61.21482849
159.10102844 -65.39255524 -66.11972809
167.56109619 -65.58996582 -76.57718658
29.10519218 -66.14683533 -82.24092865
31.63082314 -66.07045746 -78.29518127
33.73492813 -66.02262115 -75.82873535
40.83072662 -65.83842468 -66.31401825
57.46906662 -65.60831451 -54.49881744
69.05264282 -65.49262238 -48.58203888
101.76467896 -65.51839447 -50.21031952
108.96409607 -65.54776764 -51.79895020
111.48076630 -65.54830170 -51.84752655
124.86833954 -65.53928375 -51.49581146
136.67018127 -65.55845642 -52.59712982
141.83262634 -65.59455109 -54.51677322
144.83471680 -65.61175537 -55.43674088
150.54666138 -65.67751312 -58.90448761
164.58154297 -65.91246033 -71.24259186
169.90495300 -66.06536865 -79.23793793
43.32683563 -66.20807648 -63.61993027
44.98427963 -66.16968536 -61.66215134
50.39983749 -66.10129547 -58.19564819
65.32521820 -65.93965149 -50.02399445
79.53359985 -65.92041016 -49.15926361
82.45810699 -65.91703033 -49.01149368
88.33884430 -65.92675781 -49.55998230
94.24707031 -65.94738007 -50.67060089
104.77625275 -65.96902466 -51.87718201
116.08123779 -65.96366119 -51.69889069
127.02536774 -65.97806549 -52.53329086
139.23301697 -65.99121094 -53.31348038
156.26876831 -66.16212463 -62.24160767
172.14071655 -66.51552582 -80.53645325
26.13974571 -67.07324982 -85.96933746
29.93958855 -66.95070648 -79.78137207
34.98552704 -66.82553101 -73.47340393
59.54327774 -66.42712402 -53.46360779
61.17830658 -66.39218903 -51.70333099
71.56985474 -66.33335876 -48.80941772
77.02573395 -66.34155273 -49.27055359
84.59851074 -66.36038208 -50.29174805
97.64595795 -66.38696289 -51.75353241
114.07300568 -66.41492462 -53.32035065
118.63430023 -66.39585876 -52.38954163
121.17801666 -66.40535736 -52.89329910
129.55447388 -66.40126801 -52.75928497
132.56430054 -66.42402649 -53.94036865
146.98348999 -66.46519470 -56.15982056
158.07341003 -66.61344147 -63.77812195
166.78787231 -66.78096008 -72.35841370
174.04954529 -66.98879242 -82.97073364
27.40635872 -67.44973755 -83.44056702
37.07293701 -67.18926239 -70.45619202
52.04958725 -66.90895081 -56.52391815
54.96417236 -66.88223267 -55.20933151
74.10001373 -66.76354218 -49.42092133
90.49362183 -66.79381561 -51.08400345
100.18006897 -66.81414795 -52.18688583
123.72706604 -66.83562469 -53.47095490
135.09091187 -66.84647369 -54.11222076
152.63342285 -66.93506622 -58.71290588
160.67274475 -67.05242920 -64.67073822
162.98387146 -67.10219574 -67.18634796
168.68643188 -67.25341034 -74.82330322
170.12696838 -67.29319000 -76.83124542
174.63003540 -67.35204315 -79.82453156
32.03599548 -67.72488403 -75.97403717
38.31726837 -67.56798553 -68.24594116
41.22611618 -67.48908234 -64.35710144
46.63814926 -67.39514160 -59.74760437
67.39547729 -67.17912292 -49.21243286
80.43633270 -67.21363068 -51.03937149
102.72917938 -67.24741364 -52.90802765
106.12326050 -67.26305389 -53.71516418
116.60888672 -67.26071167 -53.68861008
125.88782501 -67.27618408 -54.53910446
128.42684937 -67.28282928 -54.89093781
138.95277405 -67.29129791 -55.40342712
149.59100342 -67.32908630 -57.37068176
154.82510376 -67.37921143 -59.90240479
164.40251160 -67.56228638 -69.06541443
28.24308586 -68.25076294 -80.89736938
48.71054077 -67.77793121 -57.88991165
56.60115051 -67.68253326 -53.28191376
63.24628830 -67.62769318 -50.64873123
69.93019104 -67.61322021 -50.00017929
77.92364502 -67.63392639 -51.08449173
86.33247375 -67.64784241 -51.83884430
108.60278320 -67.66706848 -52.97731018
111.59445190 -67.68862915 -54.05999756
119.57620239 -67.69082642 -54.23891068
130.97570801 -67.71200562 -55.37695694
141.52507019 -67.72663116 -56.18411636
172.29615784 -68.15365601 -77.39229584
176.45275879 -68.23138428 -81.23835754
24.00582504 -68.79682159 -86.68412781
24.84798050 -68.73968506 -83.91954803
29.50087357 -68.61779022 -78.05079651
33.28897858 -68.52597046 -73.63220978
34.96409607 -68.48011780 -71.42591095
42.46021271 -68.28658295 -62.10545349
72.06142426 -68.05670166 -51.22164154
82.56804657 -68.07225800 -52.06655121
88.88497925 -68.08609772 -52.78984451
91.43005371 -68.10005188 -53.49112701
93.45267487 -68.06345367 -51.73250198
95.95132446 -68.05551910 -51.37219620
100.27201080 -68.11313629 -54.19973755
122.12362671 -68.12101746 -54.77524948
133.50166321 -68.13414001 -55.50989151
136.04902649 -68.14243317 -55.93364334
144.09931946 -68.16229248 -56.96892929
157.02256775 -68.24568176 -61.12253189
159.64584351 -68.27076721 -62.36130142
167.02087402 -68.42840576 -70.06906891
168.49531555 -68.47912598 -72.54469299
172.09385681 -68.52958679 -75.01973724
176.67716980 -68.71043396 -83.82627106
38.71316147 -68.79128265 -66.06002045
44.12017822 -68.67149353 -60.36372375
53.27490997 -68.55393219 -54.80799103
58.67206192 -68.49742889 -52.14458847
65.36352539 -68.48276520 -51.50109482
67.87054443 -68.47648621 -51.22370148
74.58390045 -68.48081207 -51.48710251
94.39286041 -68.53193665 -54.11183548
97.31051636 -68.52217865 -53.67093658
113.77071381 -68.55801392 -55.53123474
124.32467651 -68.57627106 -56.49752808
126.83689117 -68.57311249 -56.36806488
138.24185181 -68.59125519 -57.34177399
146.66661072 -68.59583282 -57.63442612
174.33741760 -68.98335266 -76.45510864
25.26301575 -69.54250336 -81.53413391
36.20512390 -69.26838684 -68.63175964
50.36140442 -69.00396729 -56.21709442
61.18589783 -68.91455078 -52.07078934
77.99426270 -68.93507385 -53.19101334
92.35749817 -68.98375702 -55.62125397
104.46116638 -68.94859314 -54.06244278
107.04216766 -68.97499084 -55.33456802
109.57224274 -68.97935486 -55.56496429
116.28715515 -68.97658539 -55.49039078
119.69303131 -68.99348450 -56.32236481
128.99481201 -69.01248169 -57.30334091
131.53169250 -69.01734924 -57.55700684
150.94212341 -69.03627777 -58.62440491
161.95735168 -69.16766357 -64.95081329
164.22354126 -69.20806122 -66.88495636
176.27169800 -69.46505737 -79.18041229
26.95550537 -69.92206573 -79.36531067
30.33605003 -69.85048676 -76.04051971
39.95442963 -69.59272766 -64.02975464
45.77947235 -69.47983551 -58.79040909
69.99536133 -69.33572388 -52.23943710
72.96649170 -69.35981750 -53.39459991
80.52448273 -69.36228180 -53.57712173
84.31382751 -69.36915588 -53.93316650
86.82344055 -69.36426544 -53.72494125
98.67098999 -69.40917969 -55.93652344
134.04844666 -69.43559265 -57.48205185
140.42167664 -69.45643616 -58.51562500
148.47251892 -69.47321320 -59.37232590
153.50004578 -69.46656799 -59.10382080
166.43128967 -69.65528870 -68.06974792
170.60322571 -69.74787903 -72.45110321
178.56513977 -69.93063354 -81.09082031
31.16514015 -70.21988678 -73.47830963
32.84626007 -70.18044281 -71.66114807
55.34804153 -69.78692627 -53.59906769
63.72920990 -69.77561188 -53.14620972
67.08809662 -69.77704620 -53.24236298
75.50012207 -69.78983307 -53.90680695
88.96287537 -69.80596924 -54.77281952
95.71970367 -69.82445526 -55.69247055
101.20587921 -69.83560944 -56.25864029
111.71850586 -69.83805847 -56.46224976
121.85121155 -69.85514832 -57.34182358
136.22711182 -69.88114166 -58.67716217
142.59306335 -69.89795685 -59.51076508
145.08601379 -69.88793945 -59.06975937
22.29269028 -70.91443634 -85.80997467
23.99096489 -70.85740662 -83.20719910
27.79132080 -70.71907806 -76.89184570
34.09605408 -70.55468750 -69.39835358
37.02154541 -70.48057556 -66.02014160
41.18451309 -70.37890625 -61.38980103
47.85483551 -70.28482819 -57.13075256
82.25640106 -70.23346710 -55.07352448
103.75555420 -70.26873779 -56.87926483
107.98169708 -70.27794647 -57.33979034
114.29453278 -70.28026581 -57.50204468
116.83734894 -70.28802490 -57.87633514
124.84471130 -70.29385376 -58.21406937
127.39144897 -70.30171967 -58.59949875
155.68017578 -70.32972717 -60.12970352
158.24751282 -70.34109497 -60.67520905
160.91041565 -70.37850952 -62.41732407
168.27149963 -70.53987122 -69.88779449
173.30664063 -70.63637543 -74.36245728
176.07067871 -70.69087219 -76.89111328
178.31015015 -70.71941376 -78.22050476
43.26328278 -70.75726318 -59.45397568
51.59226990 -70.65124512 -54.71349335
57.85706329 -70.61739349 -53.22918320
69.65171814 -70.65071869 -54.84398270
77.63212585 -70.65093994 -54.92383194
80.19643402 -70.67864990 -56.20653534
85.65314484 -70.67458344 -56.06874847
119.38891602 -70.71931458 -58.39602280
129.95660400 -70.73680115 -59.27970123
132.48768616 -70.73884583 -59.39684677
138.37338257 -70.73648834 -59.34255219
150.24296570 -70.76171875 -60.59038925
180.54541016 -71.17134857 -79.46243286
23.55536270 -71.66088867 -80.98249054
25.24676895 -71.60031891 -78.27328491
28.62428856 -71.51199341 -74.33235931
38.26303101 -71.27686310 -63.85005188
59.98004913 -71.05990601 -54.28242874
62.51335144 -71.07209778 -54.85485458
65.03231812 -71.07122040 -54.83551788
90.70812988 -71.10130310 -56.41326523
93.26860046 -71.12153625 -57.34503937
97.07081604 -71.13027191 -57.77144623
100.02167511 -71.13341522 -57.93807983
110.11854553 -71.13410950 -58.05521393
134.66392517 -71.18424988 -60.52482224
143.56462097 -71.20195007 -61.39935684
146.88818359 -71.18741608 -60.77678299
152.84143066 -71.20416260 -61.57717133
163.18240356 -71.26692200 -64.48955536
20.57880783 -72.15062714 -83.79480743
30.72605324 -71.87593079 -71.66413879
34.49662781 -71.77365112 -67.14528656
44.92280197 -71.56385040 -57.90063858
72.18609619 -71.50118256 -55.35083008
74.71827698 -71.50923920 -55.73064423
82.33418274 -71.54165649 -57.24074554
87.79550934 -71.53849792 -57.14842224
103.43438721 -71.57616425 -58.96017838
105.94569397 -71.56996918 -58.70643234
112.69314575 -71.57588196 -59.02877426
121.57511902 -71.59310913 -59.87282944
124.11938477 -71.59992981 -60.19691086
140.54466248 -71.60014343 -60.35115814
155.40972900 -71.63719940 -62.12854385
165.43772888 -71.72891235 -66.29583740
170.41259766 -71.81625366 -70.22851563
172.23982239 -71.85161591 -71.81668091
182.73965454 -72.03907013 -80.24487305
26.08542442 -72.39891052 -75.99030304
32.40546417 -72.25734711 -69.81359863
48.66480637 -71.92749023 -55.42986298
53.69728088 -71.91692352 -55.00800705
56.21232605 -71.91139221 -54.78501129
67.55648041 -71.91455841 -55.02339172
76.85786438 -71.95576477 -56.92073059
108.11174011 -72.01890564 -59.97130585
115.24472046 -72.00778961 -59.54687500
117.78097534 -72.01210785 -59.75701523
126.66809845 -72.02912903 -60.58461380
136.83239746 -72.04813385 -61.50940704
148.67747498 -72.06235504 -62.24194336
158.02757263 -72.08457947 -63.30271530
167.65185547 -72.17921448 -67.55114746
174.44766235 -72.29875946 -72.87445068
176.28263855 -72.33506012 -74.48970795
178.57562256 -72.37910461 -76.45005035
21.42611504 -72.95262909 -81.57457733
36.16390991 -72.56826019 -64.94338989
39.50333786 -72.49626160 -61.83777237
41.58921432 -72.45904541 -60.23411942
59.18328476 -72.36151123 -56.13154602
63.82127762 -72.37415314 -56.72574997
68.87739563 -72.38278961 -57.14639282
84.46708679 -72.40124512 -58.08671951
89.94493866 -72.40606689 -58.34524918
97.58081055 -72.43801117 -59.80270767
119.55843353 -72.47092438 -61.43175125
129.22743225 -72.46207428 -61.12950516
131.78961182 -72.47452545 -61.69338226
140.27246094 -72.49254608 -62.55177689
144.94943237 -72.50524902 -63.14812088
151.25202942 -72.49774933 -62.87622833
180.79425049 -72.82809448 -77.53415680
22.27127075 -73.32615662 -79.31463623
46.57952118 -72.78960419 -56.36989594
51.61885834 -72.78314972 -56.13620758
71.41242218 -72.81237793 -57.56779099
74.78682709 -72.81915283 -57.89091110
79.40579224 -72.81343842 -57.68567276
86.62446594 -72.85424042 -59.50791931
91.69440460 -72.86400604 -59.97261429
95.00480652 -72.83255005 -58.64629364
100.13851929 -72.87478638 -60.51208496
104.77422333 -72.87563324 -60.58975983
110.64791107 -72.86526489 -60.19205093
115.79490662 -72.90454865 -61.93447876
134.37661743 -72.91669464 -62.62145233
153.82662964 -72.93331909 -63.50611496
160.55023193 -72.92572021 -63.23749542
183.40431213 -73.26838684 -78.22554779
18.87251282 -73.87747192 -84.65772247
23.96655655 -73.70841217 -77.47875977
26.49803543 -73.62184143 -73.80223083
28.61107826 -73.58938599 -72.43112946
30.28863716 -73.53111267 -69.95668030
37.40724945 -73.36484528 -62.91614914
43.24351883 -73.25311279 -58.18931961
61.31093216 -73.22680664 -57.22381973
65.94554901 -73.23398590 -57.57445145
81.15084076 -73.27512360 -59.46469879
113.21686554 -73.30483246 -61.01079559
122.11239624 -73.32397461 -61.90571213
137.39556885 -73.36218262 -63.67206573
142.42820740 -73.35186005 -63.27582169
147.09925842 -73.36199951 -63.74994659
155.63111877 -73.39093018 -65.06064606
164.07662964 -73.39145660 -65.15565491
169.80000305 -73.45685577 -68.00277710
178.38345337 -73.60224915 -74.29071045
186.10417175 -73.73104858 -79.85998535
31.96699715 -73.91082001 -68.12389374
53.33084488 -73.65959167 -57.68043137
55.84038162 -73.64374542 -57.03392792
106.91749573 -73.73568726 -61.36891937
124.64996338 -73.74887085 -62.08090210
127.22348785 -73.76612854 -62.83340454
129.77809143 -73.77511597 -63.23512650
149.28759766 -73.80963135 -64.86585999
158.15406799 -73.81005096 -64.96495056
160.34513855 -73.83399200 -65.99628448
171.62062073 -73.91550446 -69.54425812
173.44418335 -73.95176697 -71.09239960
18.86921120 -74.67629242 -82.36599731
20.14347458 -74.61669922 -79.87770844
24.38119125 -74.50163269 -75.09306335
34.06264877 -74.28462982 -66.08722687
48.69179153 -74.06478882 -57.00179672
57.96973038 -74.09218597 -58.22926331
63.45206451 -74.10327148 -58.74208832
68.08428955 -74.10517120 -58.86296082
76.09828186 -74.11717987 -59.43650055
83.28041077 -74.13307953 -60.16408539
88.35102844 -74.14289093 -60.61998367
93.42111969 -74.15116119 -61.01004028
95.93472290 -74.14317322 -60.69877625
102.26142120 -74.14663696 -60.89957428
109.08404541 -74.18520355 -62.57690048
111.62858582 -74.19168091 -62.86976624
117.95709991 -74.19240570 -62.95291138
122.66992950 -74.22241974 -64.25390625
132.34753418 -74.21150970 -63.88018417
139.54515076 -74.21998596 -64.29981232
144.24223328 -74.23847198 -65.11527252
151.81950378 -74.23156738 -64.88902283
166.26693726 -74.25894165 -66.16310120
176.13055420 -74.41487122 -72.78154755
180.58540344 -74.47221375 -75.22478485
188.29498291 -74.59832764 -80.57557678
20.98943901 -74.98824310 -77.63945007
38.64815140 -74.58173370 -60.92683411
41.15206146 -74.53782654 -59.12687683
50.82681656 -74.52648163 -58.73821259
70.63254547 -74.54444885 -59.65801239
73.15048981 -74.53771973 -59.40071487
78.64196014 -74.55049133 -59.97706223
98.52244568 -74.59647369 -62.06052399
104.04187775 -74.61595917 -62.91758728
134.51644897 -74.65542603 -64.81873322
141.71987915 -74.66453552 -65.25962830
162.51557922 -74.69623566 -66.75901794
182.82037354 -74.92662811 -76.49695587
185.45785522 -74.94988251 -77.48526001
26.48789215 -75.27600861 -72.04226685
28.17152786 -75.22888947 -70.12037659
34.88494873 -75.07511139 -63.85617065
44.91956711 -74.92539215 -57.79005432
60.09377289 -74.95416260 -59.10490417
65.59342957 -74.97820282 -60.14170837
85.42378235 -74.99941254 -61.18560028
90.50006866 -75.01087189 -61.70228958
101.51597595 -75.04032898 -63.00977325
114.16276550 -75.03678131 -62.97434998
120.11007690 -75.05484009 -63.76740646
125.22096252 -75.07413483 -64.60399628
128.19598389 -75.08200836 -64.95755768
136.69886780 -75.10382843 -65.92501831
146.42425537 -75.10722351 -66.15317535
148.61747742 -75.13439178 -67.28559875
154.05757141 -75.11673737 -66.60872650
156.67961121 -75.14420319 -67.76270294
166.88327026 -75.16080475 -68.53356934
190.91931152 -75.46761322 -81.35198212
16.73704529 -75.99599457 -84.01453400
17.58858681 -75.91613007 -80.77045441
21.83210182 -75.77315521 -74.98898315
29.84814262 -75.59351349 -67.74250793
47.45820236 -75.36661530 -58.65686798
53.36495209 -75.38356781 -59.39884567
55.88915253 -75.38105774 -59.31840897
74.90511322 -75.43374634 -61.62868881
80.79162598 -75.42320251 -61.25259399
87.17115784 -75.45977783 -62.79928589
94.76363373 -75.45989990 -62.87034988
106.58538055 -75.46588898 -63.21476746
112.57183075 -75.50334167 -64.79435730
115.93939209 -75.49864197 -64.62892914
130.75685120 -75.51539612 -65.44255829
139.28060913 -75.54336548 -66.65415192
151.11578369 -75.54439545 -66.80065918
159.20297241 -75.56262207 -67.61538696
175.09977722 -75.63471222 -70.68904114
178.24931335 -75.68635559 -72.81773376
18.86268234 -76.26856995 -77.81996155
23.52220345 -76.14213562 -72.76124573
31.94444275 -75.96151733 -65.55170441
36.55557632 -75.87942505 -62.27878571
62.23868942 -75.83539581 -60.72790909
67.72210693 -75.84043884 -60.97929001
72.36687469 -75.84803009 -61.32421494
77.45291138 -75.86890411 -62.21232605
82.94228363 -75.87416077 -62.46945953
109.17436218 -75.91561890 -64.37422943
118.95050812 -75.94546509 -65.66059113
122.76438904 -75.95102692 -65.91931915
132.94699097 -75.96810913 -66.69741058
143.13313293 -75.98366547 -67.41319275
163.50474548 -76.00812531 -68.57919312
169.39389038 -75.99858093 -68.24343872
180.84872437 -76.12564087 -73.46920776
187.58537292 -76.22535706 -77.55030823
189.83296204 -76.25749969 -78.86872101
16.31026840 -76.69940948 -78.02815247
42.84179306 -76.23197937 -59.57756805
48.75429916 -76.25544739 -60.56485748
51.28178024 -76.25459290 -60.55548859
57.60523224 -76.25839233 -60.76006699
69.86290741 -76.29067230 -62.15795135
91.00083160 -76.32382965 -63.66855240
96.90341949 -76.32095337 -63.60398865
99.44754028 -76.32778931 -63.89946365
102.85771942 -76.34581757 -64.64957428
152.53569031 -76.44078827 -68.87908936
171.64108276 -76.46051788 -69.83480835
183.04614258 -76.57099152 -74.34911346
192.47821045 -76.70739746 -79.88165283
194.32690430 -76.74525452 -81.41353607
19.28378677 -77.05252838 -75.19712067
25.63125610 -76.93122101 -70.44987488
27.73650169 -76.87767029 -68.34521484
39.90350723 -76.67195892 -60.30744934
45.37298584 -76.66012573 -59.88698578
64.37760925 -76.70893097 -61.98445511
79.59692383 -76.73820496 -63.27630615
85.08811951 -76.74243164 -63.49423218
107.10505676 -76.78079224 -65.20182800
113.91682434 -76.80675507 -66.28932190
125.75175476 -76.80850220 -66.46434784
128.30163574 -76.81443787 -66.71945190
136.39306641 -76.83832550 -67.73636627
139.84059143 -76.86238098 -68.72114563
145.29142761 -76.84494781 -68.07648468
155.11663818 -76.87793732 -69.46995544
157.66995239 -76.88262939 -69.67614746
160.18371582 -76.87435913 -69.36978149
167.44618225 -76.89533997 -70.26488495
185.30041504 -77.03151703 -75.81520081
190.44378662 -77.04434204 -76.36870575
195.79389954 -77.22007751 -83.37129211
14.18111610 -77.58798218 -79.50316620
20.97812843 -77.42978668 -73.35473633
33.61581421 -77.17897797 -63.62527466
53.41369629 -77.12892914 -61.83469391
59.73109055 -77.12150574 -61.59904480
61.87271500 -77.15601349 -62.96989059
74.54611969 -77.16978455 -63.62103653
87.24571991 -77.19577026 -64.75270844
92.74829102 -77.20401764 -65.12453461
95.29291534 -77.21038818 -65.39530182
108.87928009 -77.24575806 -66.90224457
111.38438416 -77.23062897 -66.32952881
116.47837830 -77.24172974 -66.81006622
120.71208954 -77.24496460 -66.97609711
147.83631897 -77.27050781 -68.21403503
162.36898804 -77.31955719 -70.26368713
164.93867493 -77.32892609 -70.65454865
176.83435059 -77.34026337 -71.20274353
29.41672516 -77.67935944 -66.64263916
42.45407486 -77.55542755 -61.93793488
50.04776382 -77.56058502 -62.20172882
55.95481491 -77.56411743 -62.39397049
66.52108765 -77.58517456 -63.30270004
71.60091400 -77.59922791 -63.89438248
77.12170410 -77.62543488 -64.96221161
81.34400940 -77.62496948 -64.97994995
89.80511475 -77.63460541 -65.43013000
97.83876801 -77.63944244 -65.68745422
100.38177490 -77.64413452 -65.89326477
104.22094727 -77.66387177 -66.69286346
122.88685608 -77.69443512 -68.04421997
126.31082916 -77.71175385 -68.74922943
130.50917053 -77.69852448 -68.27143860
133.07867432 -77.71155548 -68.79708099
143.24653625 -77.71664429 -69.08663940
149.29624939 -77.76105499 -70.86424255
169.63359070 -77.76365662 -71.14449310
173.05331421 -77.77295685 -71.53556824
196.38313293 -78.00372314 -80.71050262
15.45985317 -78.36147308 -76.52505493
17.15933418 -78.30995178 -74.55210114
23.09265709 -78.22772980 -71.43544769
36.96281433 -77.95543671 -61.06183624
44.99268341 -77.99140930 -62.52090454
47.52407455 -77.99237061 -62.57931900
69.07168579 -78.02413177 -63.99054718
85.16694641 -78.06250763 -65.61116028
136.53414917 -78.16230011 -69.90521240
151.81379700 -78.17649078 -70.58390808
158.25096130 -78.20500946 -71.73919678
179.04498291 -78.21450806 -72.28709412
187.37744141 -78.29241180 -75.36363983
194.07719421 -78.38156128 -78.85811615
12.05139732 -78.87117767 -79.73661804
24.35451508 -78.59290314 -69.21110535
31.09199905 -78.47394562 -64.72776031
39.08379364 -78.40553284 -62.18501282
57.67479324 -78.44566345 -63.88124466
79.26071167 -78.49093628 -65.79684448
106.36604309 -78.52607727 -67.37755585
110.22219086 -78.55226135 -68.40955353
113.15655518 -78.53881073 -67.92202759
118.23218536 -78.53936005 -67.98634338
139.10313416 -78.59714508 -70.37590790
141.68925476 -78.61449432 -71.06070709
145.03807068 -78.59967804 -70.52326202
153.99519348 -78.62223053 -71.46428680
160.80725098 -78.63326263 -71.94580078
163.35818481 -78.63620758 -72.07975006
165.93089294 -78.64581299 -72.46893311
174.86979675 -78.65701294 -72.97671509
181.29780579 -78.67723846 -73.80532074
183.80258179 -78.66566467 -73.38418579
191.42816162 -78.78009796 -77.82167053
198.59368896 -78.87664795 -81.57278442
12.90723133 -79.23817444 -77.52467346
18.85539818 -79.11322784 -72.84479523
26.46353722 -78.97875214 -67.81996918
35.29641342 -78.84825134 -62.95703888
51.34688950 -78.87252808 -64.01520538
53.87673950 -78.86882019 -63.89429092
60.21399307 -78.87511444 -64.19094849
63.17489243 -78.88113403 -64.44503784
65.72867584 -78.90119171 -65.22631836
72.50711823 -78.91880035 -65.94950867
75.01959229 -78.90013123 -65.26467896
87.33446503 -78.94503784 -67.07405853
91.13381195 -78.94142151 -66.97042084
93.66838074 -78.94036102 -66.95081329
96.22469330 -78.95237732 -67.43022156
98.78768158 -78.96755219 -68.02745819
101.32083893 -78.96503448 -67.95270538
115.73566437 -78.98199463 -68.72292328
120.40866089 -78.99063873 -69.08781433
124.25317383 -79.00675964 -69.73346710
128.47724915 -79.00302124 -69.62933350
131.46913147 -79.01505280 -70.11214447
133.64941406 -79.04125977 -71.12211609
147.23515320 -79.05259705 -71.66844940
168.53797913 -79.08997345 -73.27158356
171.03665161 -79.07551575 -72.74613190
177.07235718 -79.10597229 -73.95306396
20.97238922 -79.49301910 -71.20498657
40.79066467 -79.28874207 -63.70840836
43.32351303 -79.28952789 -63.75983047
68.28347778 -79.34286499 -65.98176575
81.41806030 -79.36952972 -67.09544373
103.87807465 -79.39888000 -68.39457703
149.43794250 -79.50693512 -72.84683228
156.22256470 -79.50727081 -72.92114258
189.59808350 -79.59346771 -76.44583130
201.17701721 -79.73583984 -81.88978577
13.76084423 -80.02907562 -75.32680511
28.14351845 -79.77436066 -65.97326660
32.76784515 -79.70104980 -63.28642273
37.41700745 -79.71794128 -63.95211029
45.87556458 -79.74409485 -65.00267029
48.39856339 -79.72688293 -64.38356018
55.59667969 -79.75247955 -65.39810944
58.55978394 -79.75950623 -65.68614197
61.52614594 -79.76915741 -66.06996918
76.35501862 -79.80075073 -67.37494659
83.94506073 -79.78529358 -66.86550903
89.52262878 -79.84046173 -68.96784210
106.46942139 -79.85105896 -69.51119232
112.00917816 -79.86967468 -70.25218201
117.52172852 -79.87348938 -70.44259644
121.80261230 -79.89489746 -71.27627563
125.63203430 -79.90242767 -71.58877563
135.81478882 -79.90814209 -71.88888550
139.23658752 -79.92067719 -72.38675690
143.46919250 -79.91822815 -72.33432770
151.96472168 -79.92492676 -72.65532684
160.96643066 -79.95862579 -73.98951721
163.52491760 -79.96300507 -74.17304993
171.64721680 -79.98263550 -74.97601318
174.19961548 -79.98428345 -75.05853271
178.88841248 -79.99047089 -75.32961273
181.91041565 -80.00549316 -75.91645050
184.45921326 -80.00586700 -75.95149994
195.72369385 -80.06771851 -78.35102081
9.49847126 -80.55664825 -79.08903503
15.46111774 -80.39859772 -73.30900574
18.85197639 -80.32066345 -70.46388245
22.23668098 -80.28082275 -69.02275085
50.53893280 -80.19155884 -65.97755432
64.07328033 -80.20378876 -66.54676056
70.43685150 -80.22521973 -67.39192200
78.89923859 -80.22915649 -67.61276245
85.70552063 -80.25762177 -68.72256470
92.05209351 -80.25726318 -68.76413727
94.60136414 -80.26389313 -69.03144836
97.14883423 -80.26902771 -69.24051666
99.31462097 -80.29857635 -70.35122681
101.50165558 -80.33921051 -71.87041473
109.02550507 -80.28295898 -69.85799408
130.74134827 -80.33670807 -72.03352356
153.77976990 -80.39171600 -74.26303101
166.49291992 -80.38659668 -74.18614960
193.06455994 -80.46230316 -77.20919037
197.93228149 -80.51532745 -79.20986176
203.38417053 -80.60824585 -82.68411255
10.78215408 -80.92209625 -76.90550232
24.34827805 -80.67234039 -67.88639069
29.82023048 -80.56873322 -64.14561462
53.07386398 -80.61347198 -65.98503113
66.21913147 -80.65902710 -67.76486969
73.82500458 -80.65254211 -67.59548187
98.60379791 -80.80495453 -73.38755035
100.39440155 -80.86080170 -75.44654083
104.04373169 -80.76224518 -71.87158203
114.57395172 -80.72897339 -70.74626160
127.79884338 -80.77165222 -72.42181396
141.41133118 -80.79038239 -73.22666168
145.66012573 -80.79369354 -73.38352966
157.60661316 -80.81896210 -74.41249847
176.38406372 -80.85282135 -75.81659698
186.66151428 -80.87847900 -76.84320831
31.94041824 -81.02084351 -65.25630951
34.47326660 -81.01593018 -65.10139465
38.28334045 -81.03517151 -65.83161163
40.81357956 -81.02464294 -65.47123718
43.36426163 -81.05410004 -66.56172180
47.58594513 -81.04508972 -66.27274323
56.06048203 -81.07231903 -67.33655548
59.86826324 -81.07447052 -67.44743347
81.05999756 -81.11096954 -68.95617676
98.32726288 -81.32044220 -76.70256042
99.28993225 -81.38926697 -79.20863342
100.67485809 -81.45442963 -81.58391571
102.73998260 -81.41584778 -80.20249939
103.45082855 -81.33406067 -77.24450684
104.18152618 -81.26550293 -74.76130676
118.47911835 -81.19867706 -72.46335602
123.56693268 -81.19867706 -72.50746155
132.51875305 -81.22028351 -73.37061310
135.10243225 -81.23677826 -73.98966217
143.62886047 -81.25330353 -74.66436768
147.86293030 -81.24945831 -74.56023407
150.42761230 -81.25650024 -74.83817291
161.95663452 -81.28031158 -75.80377197
167.90856934 -81.28294373 -75.95157623
190.58691406 -81.33287048 -77.95860291
200.16482544 -81.39520264 -80.30420685
205.56745911 -81.47464752 -83.23219299
7.37307930 -81.81483459 -78.41751862
11.63835335 -81.70878601 -74.64046478
16.30965424 -81.60252380 -70.85625458
26.03031540 -81.46566010 -66.02115631
62.41102219 -81.50333405 -67.69276428
69.64415741 -81.54437256 -69.23258209
75.56731415 -81.54193878 -69.19441223
83.61714935 -81.54783630 -69.47669983
87.44343567 -81.55948639 -69.93157959
92.97215271 -81.57573700 -70.56152344
95.52568054 -81.58360291 -70.86688995
99.49539948 -81.94140625 -83.77404022
102.08747101 -81.96085358 -84.49852753
107.00364685 -81.60620117 -71.78081512
109.55500793 -81.61112213 -71.97959900
112.09452057 -81.60913849 -71.93180847
115.94728088 -81.62854767 -72.66410828
121.04724121 -81.63436890 -72.91935730
125.74523163 -81.64979553 -73.51472473
137.66586304 -81.66868591 -74.29602051
155.57249451 -81.69951630 -75.56253052
158.60813904 -81.72255707 -76.41769409
164.14894104 -81.72888184 -76.69379425
172.61474609 -81.71893311 -76.40933228
179.89739990 -81.73822784 -77.16686249
182.47282410 -81.74613190 -77.47542572
8.65949345 -82.17447662 -76.08608246
13.34013176 -82.07782745 -72.67938232
20.11877441 -81.96121216 -68.57851410
39.99620819 -81.92948151 -67.61890411
49.72367477 -81.92805481 -67.65346527
52.26654053 -81.93527985 -67.93212891
64.99284363 -81.97285461 -69.38550568
72.20752716 -81.98937988 -70.03786469
78.12759399 -81.98235321 -69.83876038
89.60284424 -82.01253510 -71.01743317
96.11613464 -82.11463165 -74.71435547
97.20462799 -82.26734924 -80.17285156
104.13771057 -82.33824158 -82.76157379
127.92815399 -82.10260010 -74.56368256
139.87358093 -82.12869263 -75.59665680
145.81748962 -82.12824249 -75.63411713
152.61744690 -82.13078308 -75.78302765
184.72178650 -82.20922852 -78.86319733
192.79974365 -82.20844269 -78.90457916
196.23561096 -82.21810913 -79.27978516
202.35888672 -82.26458740 -80.99146271
22.23112488 -82.35102081 -67.42491913
28.56672478 -82.31399536 -66.16892242
35.33816528 -82.33799744 -67.07659149
45.48572540 -82.33619690 -67.10220337
53.99166870 -82.40373993 -69.56387329
57.77967834 -82.37563324 -68.60525513
61.20094681 -82.41714478 -70.10200500
81.13881683 -82.44360352 -71.21234131
94.34027100 -82.48750305 -72.88111115
97.31119537 -82.76165771 -82.60727692
100.02458191 -82.85845947 -86.05870056
105.30055237 -82.69665527 -80.37902069
105.95310974 -82.58140564 -76.30643463
113.48387146 -82.51970673 -74.18846130
119.01452637 -82.52671814 -74.48278809
122.41899109 -82.53119659 -74.67381287
130.44508362 -82.51377106 -74.12643433
133.07533264 -82.55142975 -75.48179626
149.28027344 -82.57882690 -76.59188080
166.32785034 -82.59741211 -77.40039825
169.31901550 -82.60312653 -77.62654114
174.82023621 -82.59527588 -77.39605713
177.37744141 -82.59750366 -77.49732971
187.27085876 -82.63372040 -78.86655426
4.40088272 -83.06162262 -77.37174988
31.10865021 -82.75790405 -66.94488525
42.54295349 -82.79339600 -68.28944397
47.20862961 -82.81241608 -68.99961090
67.12738037 -82.83784485 -70.06625366
74.36171722 -82.86947632 -71.23915100
84.53582001 -82.87284088 -71.44461823
95.41066742 -83.05870056 -78.06401825
110.90626526 -82.92654419 -73.56024933
135.62930298 -82.97880554 -75.61196136
142.06298828 -83.00524902 -76.59414673
155.72116089 -83.02907562 -77.54872131
160.38427734 -83.02485657 -77.44190979
180.91297913 -83.06572723 -79.05505371
198.12112427 -83.12192535 -81.17728424
204.55578613 -83.13525391 -81.70175171
207.29798889 -83.18645477 -83.52522278
6.53528976 -83.44406128 -75.90776825
9.09279060 -83.38769531 -73.96723175
11.21894741 -83.35049438 -72.69108582
14.19076061 -83.29252625 -70.69732666
17.15620041 -83.24782562 -69.17012787
24.34207344 -83.17270660 -66.61472321
37.46217346 -83.20820618 -67.96708679
50.18478394 -83.25631714 -69.75157166
56.12523651 -83.27246857 -70.36769867
63.33654785 -83.28444672 -70.84432220
69.69668579 -83.28938293 -71.07524109
86.69670105 -83.32803345 -72.56793213
90.10333252 -83.33835602 -72.95711517
107.54988861 -83.37189484 -74.27647400
115.63673401 -83.38450623 -74.78775024
124.99716187 -83.39516449 -75.23859406
152.34265137 -83.46252441 -77.82385254
163.42141724 -83.47180176 -78.24306488
171.13392639 -83.49215698 -79.01756287
176.29229736 -83.50999451 -79.68510437
189.10803223 -83.52581024 -80.34632874
194.21124268 -83.52442932 -80.34413910
26.46417999 -83.63905334 -68.14737701
29.00335312 -83.64078522 -68.23036957
32.81383896 -83.64826202 -68.52341461
44.67520905 -83.67079163 -69.40436554
58.67536163 -83.70697784 -70.77690887
71.84751892 -83.74398804 -72.16925049
76.90979004 -83.72192383 -71.44969940
79.50195313 -83.76354980 -72.90901947
82.47185516 -83.76439667 -72.96695709
94.03090668 -83.83817291 -75.61381531
95.55754089 -84.00801086 -81.49401855
106.47801208 -83.91517639 -78.38218689
129.29101563 -83.84259033 -76.07553101
137.83964539 -83.86600494 -76.95699310
144.23388672 -83.87428284 -77.30059814
146.81668091 -83.88793945 -77.79576111
157.93576050 -83.91287994 -78.75050354
165.63935852 -83.92983246 -79.40502930
168.23381042 -83.94456482 -79.93601990
173.70126343 -83.92244720 -79.22180176
178.51197815 -83.96596527 -80.76503754
183.19116211 -83.96472168 -80.76254272
185.71777344 -83.95571899 -80.47467804
191.72964478 -83.97193909 -81.08823395
200.30052185 -83.98791504 -81.71421051
38.75484085 -84.11067200 -69.92488861
41.29543686 -84.10966492 -69.91303253
47.67143250 -84.14994812 -71.35124207
52.32237244 -84.13358307 -70.82823181
65.47988129 -84.15892792 -71.81206512
74.01808167 -84.21506500 -73.80973053
84.62911987 -84.21724701 -73.97778320
92.25914764 -84.21148682 -73.84732819
98.64501953 -84.50279236 -83.88174438
101.19876099 -84.49893188 -83.77513885
108.08441162 -84.28514099 -76.51010895
117.00536346 -84.28414154 -76.55363464
119.52836609 -84.27049255 -76.10821533
122.08762360 -84.27600861 -76.31849670
126.37561035 -84.29553223 -77.02606964
131.90486145 -84.29742432 -77.13717651
134.46440125 -84.30191803 -77.31441498
142.20025635 -84.33824158 -78.62449646
149.42643738 -84.33666229 -78.63471985
154.14190674 -84.35131836 -79.17712402
195.66329956 -84.42821503 -82.17612457
202.52697754 -84.44187927 -82.70234680
1.85182416 -84.75148773 -76.99943542
6.97197819 -84.65030670 -73.60418701
19.27097702 -84.48363495 -68.04763794
21.81192398 -84.50642395 -68.84405518
34.94359970 -84.53486633 -69.92433929
57.01707077 -84.60251617 -72.41868591
60.82982254 -84.59820557 -72.30335236
67.62560272 -84.61048126 -72.78235626
76.98648071 -84.63766479 -73.78820038
87.20369720 -84.66327667 -74.74757385
103.71890259 -84.90087891 -82.96718597
110.60420227 -84.69328308 -75.97180939
113.12819672 -84.67955017 -75.52540588
160.14442444 -84.79409027 -79.83135223
162.73701477 -84.80867004 -80.34752655
172.17773438 -84.83534241 -81.33705139
180.70820618 -84.83936310 -81.54788971
187.55213928 -84.84884644 -81.92964172
193.18800354 -84.87890625 -83.00164795
198.27981567 -84.87220001 -82.81661987
205.54116821 -84.87677002 -83.03680420
3.98787117 -85.13237000 -75.53313446
9.10001469 -85.02949524 -72.10809326
11.22400093 -84.99104309 -70.82860565
24.35193253 -84.93209076 -68.95736694
26.89936066 -84.97145844 -70.30584717
29.44099617 -84.97131348 -70.32451630
50.21897507 -85.00506592 -71.64355469
54.04562378 -85.02205658 -72.25074768
63.38488388 -85.03498840 -72.76596832
89.75360870 -85.08985138 -74.84898376
105.30347443 -85.25350189 -80.50189972
128.15945435 -85.18607330 -78.42745209
136.67747498 -85.19159698 -78.68941498
139.66500854 -85.19634247 -78.87339783
145.22230530 -85.20809174 -79.32067871
151.61930847 -85.21407318 -79.57765198
156.35488892 -85.23530579 -80.33408356
190.15924072 -85.29089355 -82.50411987
13.34475040 -85.37746429 -69.60622406
15.88552189 -85.38780212 -69.97564697
31.98854446 -85.41547394 -71.04053497
39.20499420 -85.44513702 -72.09751892
43.00749207 -85.41761017 -71.20934296
45.56486511 -85.44506836 -72.15131378
61.72991943 -85.50921631 -74.43901825
69.76877594 -85.48192596 -73.59691620
79.16269684 -85.53408813 -75.42333984
81.70045471 -85.52539825 -75.15298462
94.54536438 -85.59992218 -77.76235199
114.92596436 -85.58366394 -77.39352417
117.54316711 -85.62026978 -78.64273834
120.06651306 -85.60504150 -78.15599823
122.64444733 -85.61862946 -78.63211823
153.88059998 -85.69280243 -81.38758087
164.95956421 -85.69497681 -81.55490875
167.52627563 -85.69899750 -81.71350861
174.74896240 -85.69223785 -81.55057526
177.38841248 -85.72122955 -82.54290771
182.92187500 -85.71889496 -82.51303864
200.16392517 -85.77816772 -84.64822388
206.99885559 -85.78089905 -84.79763031
-0.72056937 -86.09477997 -79.25296021
18.42732811 -85.82518005 -70.46724701
20.97003174 -85.83457947 -70.79895782
36.23188782 -85.85515594 -71.61544037
47.70189667 -85.89915466 -73.17707825
51.94430923 -85.89920807 -73.21700287
58.73731995 -85.90624237 -73.50894928
65.54391479 -85.92645264 -74.23863983
71.93602753 -85.95176697 -75.13602448
75.33159637 -85.95036316 -75.11992645
91.91737366 -85.96897125 -75.88311005
96.85121918 -86.14897919 -81.90394592
109.44012451 -86.03273773 -78.15274811
130.31768799 -86.05222321 -78.98360443
132.87319946 -86.05364990 -79.05074310
138.06542969 -86.09352875 -80.42099762
143.16006470 -86.08718872 -80.25581360
146.63267517 -86.11569214 -81.23158264
149.12158203 -86.08807373 -80.33734894
158.15998840 -86.12688446 -81.70535278
161.14007568 -86.12619019 -81.70845032
170.09294128 -86.12889862 -81.87673950
180.02629089 -86.17483521 -83.48621368
185.48228455 -86.14639282 -82.59105682
188.61337280 -86.19406891 -84.20130920
195.00648499 -86.19281006 -84.21417999
202.76608276 -86.21738434 -85.09777832
0.15784490 -86.42753601 -76.20595551
4.00179720 -86.34322357 -73.46069336
23.51225662 -86.25688171 -70.78430939
41.33828735 -86.32290649 -73.11634064
43.90169525 -86.35942841 -74.34148407
54.09014893 -86.35991669 -74.44820404
67.69570160 -86.38304901 -75.32718658
83.85932922 -86.40405273 -76.16154480
87.27261353 -86.41547394 -76.56860352
99.43788147 -86.59518433 -82.59503174
102.00005341 -86.59811401 -82.71316528
106.49296570 -86.47604370 -78.73237610
111.97729492 -86.44982910 -77.91580963
125.19621277 -86.46927643 -78.67033386
135.10929871 -86.53029633 -80.76769257
171.94461060 -86.60775757 -83.64169312
190.82858276 -86.64706421 -85.10192108
197.69114685 -86.65809631 -85.52647400
208.47239685 -86.69054413 -86.68972778
6.13252831 -86.71892548 -71.89534760
25.63728714 -86.71949005 -72.08486938
28.18038940 -86.71498108 -71.95835876
33.69666672 -86.72943878 -72.47814178
63.04302979 -86.83032227 -76.03673553
81.34577942 -86.85962677 -77.15395355
89.84564209 -86.85829163 -77.18399811
127.40695190 -86.93701172 -80.08455658
140.22875977 -86.96042633 -80.96331024
150.92713928 -86.98226166 -81.77078247
155.66853333 -87.00481415 -82.54909515
163.35551453 -87.01085663 -82.81402588
174.50428772 -87.03458405 -83.68948364
183.97160339 -87.06374359 -84.72579193
205.01593018 -87.10537720 -86.27142334
-2.86375570 -87.41407013 -80.62744141
-1.97872615 -87.31243134 -77.33567047
1.87279940 -87.21911621 -74.33807373
9.10614777 -87.09940338 -70.51606750
12.49342442 -87.13152313 -71.58779144
15.03702545 -87.13261414 -71.64461517
30.72988129 -87.16132355 -72.71533966
35.82931519 -87.18909454 -73.66130066
49.42681885 -87.21972656 -74.77518463
55.82370377 -87.25990295 -76.13406372
58.78470230 -87.24221802 -75.58547974
69.83808899 -87.25242615 -76.01388550
73.67350769 -87.26416779 -76.42874146
76.65661621 -87.27230072 -76.71695709
92.84925079 -87.30420685 -77.89521790
95.46864319 -87.35290527 -79.50023651
103.62464905 -87.39844513 -81.04769135
110.80214691 -87.36038208 -79.87562561
113.38701630 -87.37814331 -80.47399902
115.92461395 -87.36869049 -80.18922424
118.47593689 -87.36715698 -80.16234589
121.04725647 -87.37628174 -80.48110962
123.61686707 -87.38431549 -80.76561737
130.88282776 -87.39774323 -81.26264954
142.05850220 -87.44317627 -82.83685303
153.15277100 -87.44776917 -83.08327484
159.57086182 -87.45722961 -83.44512177
165.98008728 -87.46258545 -83.67587280
168.50462341 -87.44982147 -83.28360748
177.10760498 -87.47695160 -84.23921967
186.51504517 -87.48476410 -84.57289886
192.66181946 -87.54120636 -86.45808411
199.90864563 -87.53731537 -86.39492798
17.15708160 -87.59165955 -72.80474091
19.70163536 -87.58115387 -72.48899841
22.24686432 -87.58600616 -72.66862488
37.96411133 -87.64781189 -74.79434967
46.03546143 -87.65472412 -75.08804321
51.98289108 -87.65804291 -75.24792480
65.60189819 -87.69138336 -76.44146729
78.82101440 -87.73332977 -77.90721130
85.21665192 -87.74720001 -78.41146088
106.58869171 -87.81282806 -80.71171570
135.65847778 -87.86660004 -82.69747162
144.10406494 -87.83141327 -81.63594055
146.32920837 -87.87327576 -83.00415802
148.88803101 -87.87343597 -83.03459167
172.94880676 -87.94219208 -85.45919037
179.37062073 -87.94912720 -85.73738861
181.91699219 -87.94387817 -85.59009552
187.14930725 -87.98114777 -86.83573151
195.18150330 -87.95451355 -86.04780579
202.15576172 -87.99884796 -87.53930664
24.37191010 -88.04063416 -73.66969299
26.92235947 -88.06343079 -74.42008972
40.52056885 -88.09339142 -75.49796295
87.79180908 -88.19116974 -79.03549194
90.76873779 -88.18985748 -79.02204132
97.64118958 -88.23570251 -80.54679871
125.78761292 -88.25750732 -81.49143982
128.38371277 -88.27840424 -82.17938995
132.27482605 -88.30604553 -83.09950256
138.14903259 -88.26148987 -81.72640991
161.74491882 -88.32685852 -84.02056885
169.52488708 -88.36528778 -85.31916809
189.71308899 -88.40841675 -86.87476349
206.08073425 -88.45039368 -88.36029053
-4.11732864 -88.62207794 -78.41417694
-1.53036189 -88.51296997 -74.97537994
3.15900517 -88.43734741 -72.61613464
7.82659292 -88.42647552 -72.31130219
10.37066269 -88.43143463 -72.49092102
29.47279549 -88.50196838 -74.89659119
32.01609039 -88.48505402 -74.38108063
34.57199097 -88.51255035 -75.27472687
43.07481384 -88.53034210 -75.91654968
58.83728790 -88.58829498 -77.89136505
61.36708832 -88.56007385 -77.01988983
63.52167892 -88.59593964 -78.17572784
67.34555054 -88.59117126 -78.05818939
70.32968903 -88.59857941 -78.31900787
72.88141632 -88.59811401 -78.32756805
75.45066071 -88.61492157 -78.88298035
80.99534607 -88.62688446 -79.31134796
92.95825958 -88.66233826 -80.54188538
100.22927856 -88.68444824 -81.30456543
109.16728973 -88.67955017 -81.22753143
122.00314331 -88.71074677 -82.33149719
139.97065735 -88.74253845 -83.49744415
143.54493713 -88.81688690 -85.88718414
151.08763123 -88.75552368 -84.00785828
154.13525391 -88.78172302 -84.86557770
156.69250488 -88.78044128 -84.84666443
163.98507690 -88.79550934 -85.38765717
166.56224060 -88.80173492 -85.60969543
175.14891052 -88.81982422 -86.25825500
183.39109802 -88.86495972 -87.76124573
197.01045227 -88.84729767 -87.32167816
5.69948721 -88.88619232 -73.42457581
12.48820686 -88.90254974 -73.99631500
15.03489971 -88.90873718 -74.21457672
18.00694656 -88.92195892 -74.65772247
20.97868538 -88.91445923 -74.44837952
36.70761108 -88.97183228 -76.39279175
47.33478546 -88.97668457 -76.63735199
49.88321686 -88.97364044 -76.56462097
53.71544647 -88.98498535 -76.95652771
111.75568390 -89.12519836 -81.88133240
114.73075104 -89.12094879 -81.77279663
117.32379150 -89.14225006 -82.46601868
126.34346771 -89.17858124 -83.68898773
137.46202087 -89.19316864 -84.24565887
146.04716492 -89.21690369 -85.06943512
159.29644775 -89.22496796 -85.43904877
171.34851074 -89.26302338 -86.74442291
191.99908447 -89.31272125 -88.48970032
194.53001404 -89.30166626 -88.16552734
199.25021362 -89.30760956 -88.39286041
